ncols        434
nrows        58
xllcorner    -2099595
yllcorner    1483755
cellsize     90.000000000000
NODATA_value -9999
5 5 5 6 6 5 5 5 5 5 5 6 6 6 6 7 7 7 7 7 7 7 7 7 7 7 7 8 8 8 7 7 7 7 7 8 7 7 7 7 8 8 8 7 7 7 7 7 7 7 6 6 6 7 7 7 7 6 6 6 6 7 7 7 7 7 7 7 7 7 7 7 7 7 7 7 7 7 7 6 6 6 6 7 7 7 7 6 7 7 7 7 7 7 7 7 7 7 7 8 8 8 8 8 8 9 9 9 9 9 10 10 10 10 10 11 11 11 12 14 14 14 14 16 16 16 16 16 16 16 16 17 17 17 20 77 105 105 85 31 21 23 24 24 23 24 22 22 24 31 44 53 63 74 51 36 35 37 37 41 44 64 89 61 56 47 47 54 57 79 96 93 81 52 54 55 55 55 54 64 59 60 80 134 160 209 241 287 303 350 373 404 408 481 499 509 516 500 500 506 474 421 414 385 348 307 324 340 328 328 315 330 334 364 357 343 350 310 278 234 223 213 214 221 222 235 250 253 239 234 236 238 241 252 255 283 288 273 275 306 299 303 281 248 247 274 272 251 246 240 234 222 220 202 202 203 203 205 205 205 207 202 199 194 191 193 183 170 158 107 121 158 162 154 131 148 182 203 206 215 221 239 251 272 260 257 267 257 247 244 242 237 237 234 237 248 253 237 224 226 228 231 230 224 220 222 226 232 235 237 237 239 239 240 242 243 243 248 255 247 246 246 250 260 260 257 256 260 265 266 267 272 274 284 293 298 292 295 298 302 307 308 308 311 316 324 328 336 339 326 325 326 328 335 338 357 361 375 383 406 411 394 373 368 365 378 389 402 406 405 405 368 361 370 371 380 379 388 399 444 464 446 437 440 436 437 434 442 456 434 415 396 408 381 391 432 436 397 394 358 351 353 377 417 407 436 451 397 377 416 424 368 369 401 427 481 464 409 392 455 482 415 394 353 379 438 428 471 495 465 460 410 432 -9999
5 5 5 5 5 5 5 5 5 5 5 6 6 6 6 6 7 7 7 7 7 7 7 7 7 7 7 7 6 6 7 7 7 7 7 7 7 7 7 7 7 7 7 7 7 7 7 7 6 6 6 6 6 6 6 6 6 6 6 6 6 6 6 6 7 7 7 7 7 7 7 7 7 6 6 6 6 7 6 6 6 6 4 7 7 7 6 7 7 7 7 7 7 7 7 7 7 7 7 8 8 8 8 8 8 8 9 9 9 9 9 10 10 10 10 10 11 12 13 13 14 19 16 15 15 15 15 15 15 16 16 16 16 19 35 78 87 114 111 46 33 22 21 21 21 22 22 23 24 25 27 33 38 51 67 84 67 45 43 46 55 102 100 102 86 65 62 56 59 79 99 94 75 60 60 63 62 61 59 74 88 95 102 119 135 190 206 237 263 330 354 373 381 426 438 469 481 462 457 475 449 391 372 358 345 320 354 356 351 340 335 330 341 353 344 306 302 285 263 228 221 212 212 213 215 220 223 224 224 224 226 232 232 234 239 239 240 237 241 256 255 268 263 234 230 249 256 231 233 233 223 213 208 204 205 205 206 208 210 209 210 207 204 198 193 191 187 191 181 142 141 123 111 114 115 120 141 182 182 206 212 226 239 269 274 254 251 257 261 257 243 238 238 236 231 229 228 225 227 229 231 232 232 227 225 219 221 229 231 239 241 241 241 241 241 243 244 246 249 248 247 248 247 257 258 257 258 265 268 268 267 270 272 281 285 284 286 293 297 297 298 301 303 307 312 318 323 334 334 324 318 319 323 335 343 351 352 363 365 397 396 365 355 359 355 357 360 362 364 367 370 363 356 362 363 376 383 399 413 437 430 422 419 432 451 473 464 486 464 417 409 434 408 392 415 445 421 377 370 355 344 370 383 417 435 458 454 415 404 431 428 377 376 407 427 480 458 404 407 480 462 426 404 364 389 452 473 493 527 520 482 427 428 -9999
5 5 5 5 5 5 5 5 5 5 5 6 6 6 6 6 6 7 7 7 6 7 7 6 7 7 7 6 6 6 6 7 7 7 7 7 7 7 7 7 7 7 7 7 7 6 6 6 6 6 6 6 6 6 6 6 6 6 6 6 6 6 6 6 7 6 6 6 6 7 7 7 7 6 6 6 6 6 6 6 6 6 6 6 6 6 6 7 7 7 7 7 7 7 7 7 7 7 7 8 8 7 8 8 8 8 8 9 9 9 9 10 10 10 10 10 10 13 13 14 17 15 15 14 14 14 15 15 15 16 16 16 16 18 32 47 52 85 107 52 52 32 31 25 22 22 22 26 26 26 28 33 36 44 52 92 93 60 46 48 53 88 92 112 100 89 79 67 62 84 102 105 84 69 71 67 67 63 62 70 81 101 106 128 129 152 186 234 264 320 331 351 361 394 404 458 464 435 451 475 452 392 361 343 330 334 366 374 365 358 352 338 355 355 354 308 284 263 250 228 220 213 211 212 213 214 214 220 222 222 222 227 227 230 230 234 234 234 236 241 240 260 260 230 229 248 254 224 221 224 216 208 207 206 205 207 208 209 211 210 210 206 204 198 196 191 192 189 187 158 151 145 148 154 148 119 143 148 166 185 203 221 228 255 275 268 253 249 253 249 244 243 241 236 233 230 230 231 231 235 239 236 233 231 228 224 223 221 229 233 239 241 242 242 243 243 244 246 248 248 248 249 248 250 255 255 258 266 268 266 266 269 272 278 279 282 285 292 292 294 295 297 299 305 309 315 319 330 331 323 317 319 322 340 349 350 348 355 359 379 371 352 352 349 348 351 354 358 358 366 367 354 356 361 371 389 393 409 424 430 424 414 413 432 450 478 475 486 466 432 429 423 401 408 436 438 428 390 375 353 346 360 378 407 423 441 453 446 431 442 437 385 378 424 444 476 447 405 416 481 467 401 381 381 416 460 477 512 543 515 480 451 450 -9999
5 5 5 5 5 4 4 5 5 5 5 6 6 6 6 6 6 6 6 6 6 6 6 6 6 7 7 6 6 6 6 7 7 7 7 7 6 6 6 7 7 6 7 6 7 7 6 6 6 6 5 6 6 6 6 6 6 6 6 6 6 5 5 5 6 6 6 6 6 6 6 6 6 6 6 6 6 6 6 6 6 5 7 6 6 6 6 7 7 7 7 7 7 7 7 7 7 7 7 8 7 7 7 7 8 8 8 8 8 9 9 10 10 10 10 11 12 13 14 14 14 17 16 13 14 14 14 14 15 15 15 15 16 16 16 18 23 79 88 58 51 67 74 64 52 45 49 46 31 37 49 63 50 72 77 78 108 81 54 56 62 81 93 132 142 133 119 83 73 97 124 126 121 106 94 75 74 72 76 76 86 120 128 132 140 150 182 235 251 259 276 302 312 343 353 392 415 410 424 431 415 359 342 329 339 355 379 401 379 390 389 354 371 394 400 325 296 252 240 223 221 216 213 210 210 212 213 229 239 220 218 219 220 221 220 220 222 224 226 220 219 228 235 219 215 220 222 215 210 210 210 209 208 207 206 206 207 208 211 209 206 203 202 203 199 195 194 191 187 182 175 174 181 187 156 125 157 189 189 166 173 207 220 240 259 272 277 256 256 266 262 257 244 234 234 233 233 247 255 252 255 266 262 236 234 235 230 228 229 226 230 238 237 236 237 239 242 243 245 249 251 253 253 256 254 251 252 259 262 264 266 270 271 273 274 279 281 286 287 288 289 292 296 303 304 308 313 320 323 326 314 339 351 358 353 344 341 340 355 360 343 342 342 340 339 342 344 349 352 358 357 346 355 386 397 413 426 437 431 417 421 402 407 423 430 438 439 456 468 463 448 414 414 424 410 401 401 383 378 353 348 372 384 400 404 411 426 459 455 460 442 394 384 433 461 469 441 412 433 476 458 409 386 367 380 411 435 504 538 488 470 497 491 -9999
5 5 5 5 5 5 5 5 5 5 5 5 6 6 6 6 6 6 6 6 6 6 6 6 6 6 7 6 6 6 6 7 7 7 7 6 6 6 6 6 6 6 6 6 6 6 6 6 6 5 5 6 6 6 6 6 6 6 6 6 5 5 5 5 6 6 6 6 6 6 6 6 6 6 6 6 7 7 7 6 6 5 7 6 6 6 6 6 6 7 7 7 7 7 7 7 7 7 7 8 7 7 7 7 7 8 8 8 8 8 9 10 10 10 10 12 13 15 15 14 14 13 16 13 13 14 14 14 14 15 15 15 15 15 16 17 20 58 79 69 48 62 74 90 84 65 68 57 41 39 54 77 66 71 92 78 105 70 57 64 69 103 117 135 164 135 117 93 81 111 129 162 150 105 91 79 78 82 97 78 85 112 128 141 149 170 204 245 271 275 279 302 322 328 334 367 394 410 405 405 391 357 348 347 365 370 397 419 400 412 412 374 380 415 407 326 300 256 241 225 223 215 213 209 210 211 214 240 250 219 215 215 216 219 216 215 217 220 219 215 214 212 217 213 213 212 212 210 208 207 208 209 209 209 208 207 206 207 209 207 204 203 202 204 203 198 197 193 192 184 182 170 173 160 161 132 171 197 199 197 184 205 218 232 243 278 280 271 276 271 268 252 248 236 235 234 236 252 261 257 254 268 262 240 237 236 234 230 229 226 225 227 229 232 234 238 240 241 243 249 251 252 255 261 259 254 252 257 258 264 266 268 269 272 275 280 280 282 284 287 288 291 294 299 300 305 309 315 317 321 312 347 351 352 346 346 344 337 352 345 339 339 339 333 333 340 345 351 351 351 351 348 359 389 391 405 418 434 428 406 410 396 405 415 419 425 425 440 446 465 459 426 434 415 400 386 389 371 363 354 352 361 372 397 395 411 423 453 466 458 434 399 395 417 447 479 444 419 451 468 438 413 389 372 386 412 435 500 539 512 491 520 520 -9999
4 4 4 4 4 4 4 5 5 5 5 5 6 6 6 6 6 6 6 6 6 6 6 6 6 6 6 6 6 6 6 6 6 6 7 6 6 6 6 6 5 5 6 5 6 6 6 6 6 5 5 5 6 6 6 6 6 6 5 5 5 5 5 5 6 6 6 6 6 6 6 6 6 6 6 6 6 6 6 6 6 6 6 6 6 6 6 6 6 6 6 6 7 7 7 7 7 7 7 7 7 7 7 7 7 8 8 8 8 8 8 10 10 10 12 14 14 14 14 13 13 13 13 14 13 13 14 14 14 14 14 15 15 15 15 18 19 31 50 56 42 41 46 71 75 60 60 70 69 44 45 70 82 88 90 99 100 77 68 96 102 114 150 178 180 145 140 103 105 129 157 195 158 105 98 90 87 109 132 124 111 111 115 152 169 184 213 266 282 302 315 334 340 304 307 347 377 415 403 392 402 401 376 371 394 380 415 464 464 459 442 377 358 380 368 320 299 256 242 228 223 216 213 208 208 210 214 235 235 213 212 211 211 210 209 208 209 211 210 211 211 212 208 208 207 205 206 206 206 205 206 207 209 211 211 209 206 205 204 204 204 210 208 205 206 205 203 198 198 193 185 168 158 158 140 189 205 223 233 218 207 197 215 225 232 265 277 282 265 254 256 247 245 239 237 236 238 246 249 250 251 252 249 243 241 237 237 235 234 230 228 230 233 235 236 239 238 244 245 246 248 251 253 258 262 257 257 256 259 261 262 266 268 271 273 280 281 283 283 285 287 290 292 295 297 300 302 307 308 309 323 336 325 324 327 343 345 326 335 322 323 326 325 329 331 344 347 349 346 343 341 357 358 359 363 392 408 404 414 399 391 389 395 408 411 416 417 429 436 449 458 459 440 403 393 380 373 379 378 370 380 357 364 378 386 407 429 438 451 469 444 406 402 443 465 478 461 435 469 475 453 431 408 385 421 458 479 512 530 530 518 552 559 -9999
4 4 4 4 4 4 4 4 5 5 5 5 6 6 6 6 6 6 6 6 6 6 6 6 6 6 6 6 6 6 6 6 6 6 7 6 6 6 6 5 5 5 5 5 6 6 6 6 6 5 5 5 5 5 6 6 6 5 5 5 5 5 5 5 5 6 6 6 6 6 6 6 6 6 6 6 6 6 6 6 6 6 5 6 6 6 6 6 6 6 6 6 6 6 6 7 7 7 7 6 7 7 7 7 7 8 8 8 8 8 8 10 10 13 14 13 13 13 13 13 13 13 13 13 14 13 13 14 14 14 14 15 15 15 15 17 18 31 33 35 34 39 40 50 54 53 56 74 82 55 52 55 69 100 98 114 106 78 72 96 115 112 135 200 195 166 167 114 127 129 164 195 157 111 107 96 92 116 142 148 139 131 137 141 167 209 218 262 279 296 313 325 341 299 300 334 355 394 410 414 420 415 386 375 399 398 419 474 470 433 415 363 343 356 346 311 287 259 247 228 224 214 212 208 207 209 208 218 215 210 210 210 209 208 208 208 208 208 209 208 209 210 206 206 206 205 206 205 205 204 204 205 208 211 211 211 209 206 206 207 210 212 209 205 206 206 205 203 199 196 188 171 153 175 186 210 210 242 254 222 212 200 213 223 228 258 265 280 271 251 245 247 244 241 240 237 240 246 247 250 251 252 251 246 240 239 239 238 238 236 236 230 229 239 240 241 242 241 244 244 246 251 251 257 259 258 260 258 258 260 262 264 265 269 271 279 277 282 284 285 287 289 291 294 294 298 299 302 305 308 320 319 315 317 321 324 329 321 322 320 321 323 324 328 332 340 345 345 340 338 347 362 368 375 376 380 400 390 400 386 382 397 406 432 434 443 441 451 452 458 466 456 439 408 409 381 390 397 394 378 394 364 362 373 377 397 400 448 441 474 463 429 422 459 488 456 441 451 480 450 432 423 407 385 405 471 485 505 511 527 533 554 555 -9999
4 4 4 4 4 4 4 4 4 5 5 5 5 5 5 5 5 6 6 6 6 6 6 6 6 6 6 6 6 6 6 6 6 6 6 6 5 6 6 5 5 5 5 5 5 5 5 6 6 5 5 5 5 5 5 5 5 5 5 5 5 5 5 5 5 6 6 6 6 6 6 6 6 6 6 6 6 6 6 5 5 6 5 6 6 6 6 6 6 6 6 6 6 6 6 7 6 7 6 6 6 6 7 7 7 7 7 8 8 8 9 10 13 13 13 21 20 12 13 12 12 12 12 13 13 13 14 14 14 14 14 14 14 14 14 18 27 58 47 39 41 43 43 48 49 57 61 70 78 106 104 84 66 104 131 143 125 108 95 91 101 144 157 187 196 172 174 187 190 189 168 191 172 136 129 109 108 151 166 199 177 172 179 153 173 202 228 279 275 282 297 288 303 292 285 308 322 371 392 427 451 424 406 419 413 410 391 405 399 370 360 328 315 319 309 293 284 266 255 253 234 212 210 207 206 206 206 207 207 205 207 211 209 207 206 208 207 206 205 204 205 206 204 203 203 203 203 205 205 204 202 205 208 209 211 214 214 213 212 211 213 212 211 208 208 206 206 204 203 197 192 176 146 185 192 211 209 231 247 233 221 215 217 220 223 244 247 269 278 248 238 248 240 242 243 247 251 255 255 253 251 249 248 243 243 242 242 245 247 247 246 240 238 239 241 243 244 245 243 244 245 248 249 252 254 258 260 263 264 265 262 265 266 268 270 273 273 276 277 282 285 289 290 292 293 295 297 300 302 305 305 306 307 310 312 315 314 317 318 319 319 321 322 330 333 337 337 333 330 344 350 363 370 376 388 405 415 391 375 375 390 409 430 460 469 471 476 489 488 490 503 493 468 454 432 417 435 446 428 389 409 411 404 380 382 381 391 400 414 432 468 475 473 484 502 478 477 458 475 426 412 390 384 391 407 429 428 445 458 500 502 518 527 -9999
4 4 4 4 4 4 4 4 4 5 5 5 5 5 5 5 5 5 5 6 6 6 6 6 6 6 6 6 5 6 6 6 6 7 6 5 5 6 5 5 5 5 5 5 5 5 5 6 6 5 5 5 5 5 5 5 5 5 5 5 5 5 5 5 5 6 6 6 6 6 6 6 6 6 6 6 6 5 5 5 5 5 5 6 6 6 6 6 6 6 6 6 6 6 6 6 6 6 6 6 6 7 7 7 7 7 7 8 8 8 9 15 13 14 28 36 18 11 12 13 12 13 13 12 13 13 13 14 14 14 14 14 14 14 16 29 43 71 58 42 42 43 43 49 52 74 80 79 84 114 122 99 83 93 127 152 140 126 104 104 103 145 157 195 200 192 211 231 231 226 205 206 198 152 141 118 114 158 183 216 196 205 200 162 189 222 247 276 278 274 290 275 283 285 283 298 311 355 368 393 413 399 381 396 381 381 365 372 370 348 336 312 299 318 298 282 284 275 262 252 232 211 209 206 206 205 206 206 206 205 206 209 208 207 206 208 207 206 205 206 203 202 202 202 202 203 203 205 204 203 201 206 208 208 208 212 213 213 212 213 213 208 207 208 208 206 206 204 203 200 194 185 163 184 189 206 206 222 233 233 224 214 215 218 221 235 241 256 266 241 237 239 238 240 243 256 264 269 262 265 259 251 247 246 249 246 245 248 262 259 255 246 241 240 241 243 245 246 245 245 245 249 251 252 254 261 262 263 264 265 264 268 269 269 272 273 273 276 277 280 282 288 289 291 292 294 296 298 300 303 304 303 304 296 300 302 303 316 318 319 319 321 322 327 330 332 333 328 336 346 349 362 368 371 377 395 416 394 369 372 387 414 428 455 459 450 456 471 484 507 523 505 473 466 451 437 457 465 445 401 410 428 426 390 410 383 383 390 399 437 458 496 501 508 525 516 516 491 486 450 438 388 401 394 390 404 412 433 453 472 486 492 512 -9999
4 4 4 4 4 4 4 4 4 4 5 4 5 5 5 5 5 5 5 5 5 6 6 6 6 6 6 5 5 6 6 6 6 6 6 5 5 5 5 5 5 5 5 5 5 5 5 5 5 5 5 5 5 5 5 5 5 5 5 5 6 5 5 5 5 5 5 6 6 6 6 6 6 6 6 6 5 5 5 5 5 5 6 6 6 6 6 6 6 6 6 6 6 6 6 6 6 6 6 6 6 6 6 7 7 7 7 8 8 9 11 12 12 26 46 52 43 44 37 15 13 13 13 13 13 13 13 13 14 14 15 14 14 20 31 92 96 50 39 39 42 43 47 54 58 70 78 105 120 139 143 127 110 123 119 164 188 137 117 137 150 152 157 217 231 221 258 316 315 304 281 257 224 180 161 132 141 185 201 267 271 279 242 195 224 261 261 275 265 271 285 266 268 270 273 278 290 318 332 343 349 354 343 330 323 323 321 336 340 311 307 299 283 292 295 270 273 255 263 232 223 213 210 206 205 203 203 203 203 203 204 205 205 204 202 204 205 206 208 208 204 200 200 199 200 200 201 204 204 201 200 204 204 207 208 210 212 211 213 212 211 206 206 205 206 206 205 202 202 199 197 195 185 162 182 193 200 213 225 231 221 212 212 216 219 226 229 235 240 231 234 233 234 241 245 257 270 261 257 271 271 257 248 268 275 274 262 249 253 284 281 260 247 244 243 244 245 248 249 251 250 250 251 254 256 265 266 265 265 267 268 269 270 270 273 271 271 274 276 280 282 284 286 287 288 291 292 294 296 299 296 292 294 298 301 305 307 307 311 319 319 319 316 319 321 324 329 329 329 339 344 353 355 357 366 375 379 367 356 387 414 431 433 431 437 417 426 459 471 507 523 531 528 495 478 484 502 477 458 430 429 479 471 427 428 434 429 410 420 403 407 443 475 525 561 570 541 515 480 425 404 401 425 446 427 445 425 418 427 444 457 474 481 -9999
5 4 4 4 4 4 4 4 4 4 4 4 4 5 5 5 5 5 5 5 5 5 6 6 6 6 6 6 6 7 6 6 6 6 5 5 5 5 5 5 5 5 5 5 5 5 5 5 5 5 5 5 5 4 5 5 5 5 5 5 5 5 5 5 5 5 5 5 5 6 6 6 6 6 6 6 5 5 5 5 5 5 5 6 6 6 6 6 5 6 6 6 6 6 6 6 6 6 6 6 6 6 6 7 7 7 8 8 8 11 13 12 11 15 36 80 76 86 60 14 14 13 12 13 13 13 13 13 14 14 14 15 25 27 42 101 85 42 39 38 40 46 48 58 60 64 67 92 108 137 161 140 132 153 151 164 191 144 126 146 176 185 170 221 241 246 255 331 355 340 319 284 247 186 193 154 145 191 219 286 300 304 269 216 249 274 265 287 272 262 277 264 264 268 269 273 284 308 315 323 324 325 326 307 304 311 304 320 333 298 295 303 283 281 281 270 263 241 243 236 224 214 211 206 205 202 202 203 203 202 202 203 203 202 201 202 203 208 208 205 205 200 199 198 199 199 200 203 203 199 199 200 203 210 209 207 206 210 211 212 213 206 205 204 204 205 205 201 200 199 197 192 184 164 187 196 198 211 228 231 219 210 211 216 219 224 225 233 234 230 233 232 235 242 249 256 254 252 253 271 266 246 245 255 259 271 258 249 251 278 293 276 257 245 244 245 246 249 250 251 252 250 251 254 256 262 263 264 265 266 269 271 269 273 273 270 270 274 275 279 280 283 284 286 287 289 291 287 290 293 292 293 295 303 304 310 316 304 305 315 311 321 322 329 330 327 329 332 332 336 340 347 350 353 360 370 373 352 360 386 394 433 435 427 433 417 432 461 472 486 494 536 541 523 507 515 530 508 486 458 442 492 488 436 457 457 458 430 453 425 416 420 437 502 527 566 547 518 488 436 413 423 447 468 438 452 444 443 447 435 443 453 460 -9999
4 3 3 3 3 4 4 4 4 4 4 4 4 4 4 5 5 5 5 5 5 5 6 6 6 5 5 5 5 6 6 6 6 6 5 5 5 5 5 5 5 5 5 5 5 5 5 5 5 5 5 5 4 5 4 5 5 5 5 5 5 5 5 5 5 5 6 6 6 6 6 6 6 6 6 5 5 5 5 5 5 4 5 5 5 5 5 5 5 5 6 6 6 6 6 6 6 6 6 6 6 6 7 6 6 7 7 7 10 11 11 10 10 19 55 134 149 107 70 29 14 12 12 14 14 13 13 14 14 15 15 30 65 66 85 114 100 65 42 38 38 72 80 87 106 94 101 79 88 140 155 182 173 198 207 196 204 170 173 160 193 244 244 225 264 286 301 351 386 406 388 301 272 227 238 196 162 183 222 291 327 327 293 234 261 273 277 270 264 257 259 260 261 263 264 269 275 298 294 297 288 287 285 281 282 284 286 298 306 297 280 280 270 269 266 271 257 232 231 227 223 216 212 206 205 203 202 202 201 202 202 201 201 201 200 201 202 203 202 200 201 200 199 198 198 199 200 203 203 198 199 202 205 210 210 204 205 211 211 213 212 205 204 202 202 200 201 198 198 189 177 162 164 186 191 196 199 206 215 223 214 208 210 214 217 220 222 229 225 227 227 233 247 266 275 252 248 247 246 245 244 242 241 245 246 249 248 247 248 258 266 263 255 246 245 246 246 249 250 249 250 252 252 255 257 259 259 261 262 264 265 266 270 273 268 269 276 277 278 279 280 282 283 284 285 283 283 289 295 301 311 322 325 322 324 326 325 321 315 320 323 334 357 373 378 384 380 347 347 335 335 333 335 343 350 356 349 370 391 398 396 411 405 417 414 419 442 435 455 458 451 475 478 490 491 498 502 521 518 493 483 515 495 472 502 512 519 478 505 457 470 455 433 454 465 514 489 471 473 432 413 429 460 492 485 484 491 470 494 470 473 487 499 -9999
4 3 3 3 3 4 4 4 4 4 4 4 4 4 4 4 5 5 5 5 5 5 5 6 6 5 5 5 5 6 5 6 5 5 5 5 6 5 5 5 5 5 5 5 5 5 5 5 5 5 5 5 4 4 5 4 4 5 5 5 5 5 5 5 5 5 5 6 6 6 6 6 6 6 6 5 5 5 5 5 5 4 5 5 5 5 5 5 5 5 6 6 6 6 6 6 6 6 6 6 7 6 6 6 6 7 7 11 11 11 11 10 10 25 61 147 164 131 99 51 31 15 13 12 12 13 13 14 14 16 17 29 56 89 112 131 125 67 41 38 38 78 102 111 116 118 121 95 90 119 135 182 192 206 226 219 213 198 194 171 204 267 279 250 279 314 329 363 385 404 399 322 280 261 260 217 181 208 215 295 330 318 287 256 262 270 269 277 267 257 257 257 258 260 259 268 281 288 284 278 280 277 275 273 274 277 282 291 293 296 285 277 267 271 267 266 259 231 225 220 220 216 209 206 204 203 202 201 201 201 201 201 201 200 200 201 201 202 201 199 200 199 198 198 198 197 198 203 201 198 199 204 204 206 206 203 204 209 210 211 211 206 204 202 201 203 199 197 197 193 166 168 179 186 188 194 197 205 214 219 212 207 210 213 215 219 222 222 220 224 226 243 265 294 283 259 247 243 244 243 243 240 240 242 243 247 246 245 247 248 250 249 249 246 246 246 248 249 250 249 250 252 254 255 256 258 260 263 263 264 264 263 265 265 266 276 277 278 279 280 281 283 283 283 283 283 285 306 315 313 314 327 337 338 338 330 330 327 324 324 324 348 349 361 380 404 402 386 380 349 341 338 339 339 340 347 348 380 387 389 387 408 398 410 401 418 421 430 456 461 442 454 464 479 483 485 479 498 502 506 509 529 504 492 516 539 539 508 528 487 501 485 452 441 468 514 499 455 439 417 407 436 473 523 523 522 524 498 522 496 508 484 507 -9999
4 3 3 4 4 4 3 4 4 4 4 4 4 4 4 4 4 5 5 5 5 6 6 6 6 5 5 5 5 5 5 5 5 5 5 5 5 5 5 5 5 5 5 5 5 5 5 5 5 5 5 4 4 4 5 5 5 5 5 5 5 5 5 5 5 5 5 6 6 5 5 5 5 5 5 5 5 5 5 5 5 3 5 5 5 5 5 5 5 5 5 5 6 6 6 7 6 6 6 6 6 6 6 6 6 10 11 11 11 9 9 9 9 39 74 133 134 135 145 92 73 52 32 13 12 12 13 14 15 17 18 21 26 46 68 66 71 50 37 39 42 81 106 160 168 173 162 146 132 139 141 164 185 235 282 268 252 247 222 222 221 303 340 337 324 364 376 397 388 341 375 359 335 299 264 222 212 271 284 300 317 308 307 287 280 269 267 281 272 284 273 256 256 255 256 260 260 261 265 265 270 268 263 263 262 275 292 316 314 289 273 256 246 255 258 244 231 220 219 215 214 211 208 204 204 202 202 201 201 201 201 200 200 200 200 200 200 200 199 199 199 198 198 198 198 196 197 197 198 198 199 202 201 203 202 203 203 204 207 210 209 207 206 202 200 201 201 192 192 176 162 189 191 192 194 199 202 207 206 210 206 206 207 209 210 214 216 218 221 226 229 258 285 306 284 245 241 240 239 240 239 238 239 239 240 241 243 244 244 245 245 246 246 245 246 246 247 246 247 250 251 253 253 255 255 256 259 261 260 260 260 260 263 265 266 272 275 276 276 276 278 279 279 281 280 294 310 335 341 335 323 340 340 342 343 340 338 347 348 350 333 338 339 342 357 370 385 415 429 417 399 389 383 357 357 345 344 362 359 363 374 394 381 383 392 409 417 431 443 433 432 459 463 461 455 466 457 468 480 498 517 521 526 531 533 553 560 553 545 533 540 514 490 442 467 538 534 472 457 428 407 465 479 514 519 516 531 576 572 546 551 533 544 -9999
4 3 3 3 3 3 3 4 4 4 4 4 4 4 4 4 4 5 5 5 5 5 5 5 5 5 5 5 5 5 5 5 5 5 5 5 5 5 5 5 5 5 5 5 5 5 5 5 5 5 5 4 4 4 4 5 5 5 5 5 5 5 5 5 5 5 5 6 6 5 5 5 5 5 5 5 5 5 5 5 5 3 5 5 5 5 5 5 5 5 5 5 6 6 6 6 6 6 6 6 6 6 6 6 8 10 11 9 8 9 9 9 9 53 74 90 79 85 109 72 50 35 34 13 11 12 13 14 15 17 18 22 23 27 33 38 38 37 37 40 45 98 125 169 178 190 183 171 158 165 165 171 185 238 274 295 285 260 244 250 256 303 353 375 362 350 343 368 353 328 366 395 368 295 273 255 237 268 304 311 309 296 299 299 295 275 267 268 263 281 279 258 255 254 254 256 256 260 266 264 275 264 258 256 257 277 297 336 330 312 292 258 247 237 244 224 221 218 216 212 212 209 208 204 204 201 201 201 201 201 200 200 200 200 200 199 199 199 199 199 198 198 198 198 198 195 195 197 197 197 198 200 200 201 201 202 202 203 204 204 202 202 203 199 199 198 198 191 191 178 161 192 194 194 195 198 202 204 202 201 202 206 206 208 210 215 216 221 225 230 234 246 264 275 264 240 240 241 239 239 238 238 239 238 239 241 243 244 244 244 245 245 245 245 244 245 245 246 247 249 250 251 253 254 255 260 261 258 258 257 257 260 263 264 264 268 272 276 274 274 275 278 278 279 279 308 311 331 336 341 335 356 354 353 350 348 346 347 351 367 356 362 368 355 351 360 373 405 428 435 426 401 388 381 381 366 351 353 351 361 373 383 375 391 398 414 422 444 444 425 432 458 462 448 442 460 448 459 470 482 491 499 503 509 505 533 535 566 566 550 551 533 502 449 464 526 535 484 471 418 411 465 482 487 487 483 522 562 577 569 579 565 558 -9999
3 3 3 3 3 3 3 3 3 3 3 3 4 4 4 4 4 4 4 5 5 5 5 5 4 4 4 5 5 5 5 5 5 5 5 5 5 4 4 5 5 5 5 5 5 5 5 5 5 5 4 4 4 4 4 4 6 5 5 5 5 5 5 5 5 5 5 5 5 5 5 5 5 5 5 5 5 5 5 5 4 3 5 5 5 5 5 5 5 5 6 6 6 5 5 5 5 6 6 6 6 6 8 10 10 8 7 7 8 8 8 8 8 15 14 17 17 31 42 22 14 10 11 14 15 14 14 14 15 17 18 23 23 28 29 33 35 38 40 42 43 68 82 116 138 148 170 224 232 226 218 219 222 256 276 322 323 305 293 292 308 324 342 333 338 340 310 296 294 313 335 345 351 340 322 309 274 315 317 316 315 304 289 279 278 294 274 263 261 260 266 254 254 253 252 251 251 252 252 257 258 265 252 250 252 267 286 315 343 320 301 275 269 247 235 225 223 217 214 211 210 208 207 204 204 203 202 202 202 201 200 200 199 199 198 198 198 198 197 197 197 196 196 196 196 195 195 195 196 196 197 198 198 198 199 200 201 199 199 198 197 198 199 200 200 200 200 195 192 176 165 183 189 193 196 196 197 197 195 207 205 205 206 210 213 217 219 229 247 265 250 238 238 234 234 229 235 246 238 241 240 237 237 238 240 243 243 243 243 244 244 244 243 244 244 244 245 247 248 250 251 253 253 253 254 257 255 257 258 259 260 264 265 263 263 264 266 270 270 272 272 277 277 281 293 304 304 303 320 349 356 357 361 359 361 363 363 364 364 383 399 400 412 400 390 385 396 407 421 439 458 426 412 420 420 414 394 352 348 353 356 363 373 391 401 405 408 426 422 421 431 438 432 428 441 439 434 440 445 453 456 466 471 478 479 489 501 523 534 527 503 496 496 455 466 504 485 451 438 448 425 421 427 435 454 478 479 504 517 567 580 605 596 -9999
3 3 3 3 3 3 3 3 3 3 3 3 3 4 4 4 4 4 4 5 5 5 5 5 4 4 4 5 5 5 5 5 5 5 5 4 4 4 4 5 5 5 5 5 5 5 5 5 4 4 4 4 4 4 4 4 5 5 5 5 5 5 5 5 5 5 5 5 5 5 5 5 5 5 5 5 5 5 5 4 4 3 5 5 5 5 5 5 5 6 6 6 5 5 5 5 5 5 6 5 6 9 10 10 9 6 7 7 7 8 8 8 8 9 9 9 9 12 16 10 10 10 10 23 33 25 21 14 15 17 19 23 24 29 30 32 34 38 40 42 44 51 60 96 104 123 159 239 264 264 253 251 246 278 291 286 287 286 294 305 316 321 347 297 304 313 295 279 277 300 314 318 323 340 334 311 297 317 313 307 306 309 290 275 272 284 273 263 261 258 256 253 252 252 251 250 249 250 250 254 255 254 251 249 251 259 272 303 335 323 312 290 280 264 243 226 226 218 214 212 210 207 207 204 204 204 202 202 202 200 199 199 199 199 199 199 199 199 199 198 197 196 196 196 195 195 195 195 195 197 196 196 197 198 198 198 199 198 197 196 196 197 198 199 200 201 201 199 193 188 171 165 171 186 193 194 195 191 195 208 210 208 207 210 212 218 222 230 244 254 244 235 237 229 228 225 231 247 238 236 236 236 236 238 239 242 243 242 243 244 244 243 243 244 243 245 246 247 248 251 252 252 251 252 258 254 255 257 258 259 260 276 285 277 268 266 268 267 268 269 274 275 277 294 313 321 322 315 311 346 356 361 364 365 366 369 370 371 371 391 409 421 430 427 412 407 415 415 439 456 470 451 450 451 446 403 393 357 352 351 352 369 375 385 385 394 398 422 416 419 420 423 421 420 426 431 440 446 462 465 471 484 504 505 497 504 496 507 515 520 502 480 475 459 486 518 496 464 462 435 444 435 436 432 444 458 471 478 488 539 552 578 593 -9999
3 3 3 3 3 3 3 3 3 3 3 3 3 4 3 3 3 4 4 4 4 5 5 4 4 4 4 4 5 4 4 4 4 4 4 4 4 4 4 5 5 5 5 5 5 5 4 4 4 4 4 4 4 5 5 5 5 9 5 5 5 5 5 5 5 5 5 5 5 5 5 5 5 5 4 4 4 4 4 4 4 4 5 5 5 5 5 5 5 5 5 5 5 5 6 6 6 6 7 7 10 9 10 7 6 6 6 7 7 7 7 8 8 8 8 8 9 9 9 9 9 9 9 9 9 11 24 14 15 17 19 22 23 27 29 34 36 38 41 44 44 48 50 63 76 123 156 216 251 323 340 314 290 238 240 245 239 252 252 261 273 288 299 264 277 272 274 259 272 279 288 297 311 328 323 329 328 301 312 307 298 293 294 281 273 266 263 264 261 256 258 256 254 251 250 248 247 247 247 248 250 248 246 247 247 267 280 290 295 297 288 311 301 291 266 238 247 223 218 211 209 206 206 205 204 202 202 201 200 200 200 200 200 200 200 199 200 199 199 198 198 197 197 197 197 196 196 195 195 195 195 197 199 196 196 196 197 196 195 195 195 196 197 198 198 199 199 198 196 191 189 173 188 195 174 182 185 192 195 200 202 206 207 214 216 218 220 228 232 232 230 224 220 229 237 240 227 231 233 230 232 233 234 235 236 240 241 242 243 242 242 243 243 244 247 249 249 249 250 251 251 250 249 257 256 254 254 256 257 262 270 277 283 314 324 290 286 302 287 275 277 285 293 310 315 332 341 343 320 343 355 370 375 378 375 378 377 395 397 407 407 418 435 457 459 467 472 469 473 503 510 508 505 503 488 422 399 399 393 401 421 408 409 391 380 393 406 427 415 413 424 442 450 448 448 466 480 478 499 511 515 518 528 539 537 543 531 528 528 543 514 489 490 481 497 561 529 535 508 493 502 466 492 456 461 477 467 460 468 489 514 522 539 -9999
2 2 2 3 3 2 2 3 3 3 3 3 3 4 3 3 3 4 4 4 4 4 4 4 4 4 4 4 4 4 4 4 4 4 4 4 4 4 4 5 5 5 5 5 5 4 4 4 4 4 4 4 4 5 5 5 5 7 7 6 5 5 5 5 5 5 5 5 5 5 5 5 5 5 4 4 4 4 4 4 4 4 5 5 5 5 5 5 5 5 6 5 5 5 6 6 6 6 10 10 9 10 6 7 5 6 6 7 7 7 7 7 7 8 8 8 8 9 9 9 9 9 9 9 9 9 15 14 14 17 18 24 34 48 43 47 45 57 63 71 59 49 49 62 90 139 157 207 240 306 330 310 279 222 212 226 216 237 236 255 260 259 266 246 255 254 263 247 256 275 274 312 323 336 325 313 310 302 305 319 309 287 284 278 273 263 261 262 259 259 258 256 252 251 250 247 246 246 246 247 247 242 240 243 244 259 263 269 271 279 274 292 286 276 268 254 256 224 217 210 208 206 205 209 206 202 202 203 203 201 201 200 200 200 200 200 200 199 199 198 198 198 197 197 197 197 197 197 196 195 196 198 198 196 197 195 195 195 195 194 195 195 196 197 197 197 198 197 196 192 189 174 185 203 201 170 173 192 193 198 202 204 206 213 215 217 217 223 230 229 225 216 216 255 266 262 246 228 229 232 232 234 234 234 235 238 240 241 241 241 242 243 243 246 248 250 249 250 252 253 250 247 252 252 251 253 253 255 258 262 267 276 282 312 331 309 305 310 296 284 289 293 304 321 331 336 347 346 338 341 354 372 378 381 380 380 387 402 405 424 427 430 430 455 466 481 486 485 491 498 496 497 501 511 509 455 434 415 409 426 439 443 447 423 410 394 395 402 401 420 435 452 464 469 468 466 483 500 511 537 542 545 552 559 548 562 553 549 549 556 541 528 525 504 496 562 554 544 505 512 517 494 526 468 465 506 490 476 472 477 498 514 511 -9999
2 2 2 2 2 2 2 2 2 3 3 3 3 3 3 3 3 3 4 4 4 3 3 3 3 4 4 4 4 4 4 4 4 4 4 4 4 4 4 4 5 5 5 4 4 4 4 4 4 4 4 4 4 4 5 5 5 5 7 5 5 5 5 5 5 5 5 5 5 5 5 5 5 4 4 4 4 4 5 5 5 4 6 5 5 5 5 5 5 5 5 5 5 5 6 6 6 7 14 10 9 5 5 5 5 6 6 6 6 6 6 7 7 7 8 8 8 8 8 8 8 8 8 8 8 9 10 12 13 15 16 23 23 21 17 25 34 70 85 105 111 69 53 67 95 125 158 213 242 267 257 251 246 202 180 182 186 237 227 221 240 214 222 226 234 251 255 232 237 270 283 316 317 334 341 324 315 307 296 301 316 304 302 276 270 269 265 263 262 261 261 268 269 253 252 249 248 246 246 244 241 240 240 239 241 243 247 251 253 258 262 280 294 271 262 239 231 222 218 210 208 206 205 211 209 207 209 214 212 208 211 212 203 201 200 200 200 199 199 200 199 198 197 198 198 197 197 197 197 197 197 201 199 197 198 197 198 198 197 194 194 194 194 195 195 196 197 194 193 193 188 184 193 209 193 194 177 190 190 194 197 201 204 208 210 212 213 220 225 229 215 218 239 254 251 254 254 250 247 243 244 238 237 237 237 238 239 240 241 241 242 245 246 248 248 249 250 252 259 253 251 250 249 250 251 251 252 253 254 257 261 273 277 305 321 328 314 299 292 294 298 306 310 333 347 360 364 377 371 367 376 388 393 392 390 390 395 403 417 434 440 443 437 445 445 470 482 463 468 461 462 485 495 482 502 526 509 452 444 464 470 473 502 494 470 457 455 449 441 432 430 419 419 444 480 494 503 513 515 520 532 531 538 540 551 558 564 587 596 598 593 605 599 570 563 561 590 552 546 548 528 518 524 532 518 544 545 523 512 512 513 499 505 -9999
2 2 2 2 2 2 2 2 2 2 2 3 3 2 2 3 3 3 3 3 3 3 3 3 3 3 3 4 4 4 4 4 4 4 4 4 4 4 4 4 4 5 5 5 4 4 4 4 4 4 4 4 4 4 5 5 5 5 5 5 5 5 5 5 5 5 6 5 5 5 5 5 5 4 4 4 4 5 5 4 4 3 6 4 5 5 5 5 5 5 5 5 5 5 6 6 6 8 11 9 8 5 5 5 5 6 6 6 6 6 6 7 7 7 7 8 8 8 8 8 8 8 8 8 8 8 9 11 12 14 15 15 14 10 10 16 22 43 58 77 95 65 54 80 89 130 150 196 222 234 229 221 227 179 166 165 194 251 239 210 231 212 208 218 227 235 232 233 256 288 305 306 317 335 329 332 324 324 306 289 290 291 302 277 271 267 266 264 263 265 268 280 281 257 255 251 251 247 246 244 243 239 239 238 238 241 240 247 249 255 258 269 291 278 262 239 231 222 217 210 207 206 206 212 212 217 217 214 214 214 213 209 203 201 200 200 200 200 200 201 201 198 197 197 197 197 197 197 197 196 197 198 198 199 199 198 198 197 197 197 196 194 193 192 193 196 193 193 191 193 188 186 197 199 191 198 173 191 189 195 201 202 204 206 207 211 212 218 223 229 210 231 242 240 238 240 242 254 263 257 260 242 239 240 238 239 239 241 242 241 242 246 246 248 248 248 249 250 255 251 246 248 248 250 250 251 251 254 253 255 259 270 277 297 312 327 315 294 290 294 298 310 320 336 347 373 375 389 386 386 398 403 403 401 403 391 391 402 414 430 430 428 421 426 432 458 462 462 455 457 471 493 486 483 507 520 512 482 468 498 493 499 513 499 494 486 487 475 472 460 457 446 441 430 453 470 480 484 490 496 504 512 514 524 531 540 553 573 591 601 605 613 622 613 601 583 609 586 583 583 570 552 545 559 531 569 585 551 547 532 526 528 520 -9999
2 2 2 2 2 2 2 2 2 2 2 2 2 2 2 3 3 3 3 3 3 3 4 3 3 3 3 3 3 4 4 4 4 4 4 4 4 4 4 4 4 4 4 4 4 4 4 4 3 4 4 4 4 5 5 5 4 5 5 5 5 4 5 5 5 5 5 5 5 5 5 5 5 5 4 4 4 4 4 4 4 4 5 4 4 4 4 4 5 5 5 5 5 5 5 5 5 11 9 6 5 5 5 5 5 5 5 6 6 6 6 6 6 7 7 7 7 7 7 8 8 8 8 8 8 8 8 9 10 11 12 12 10 8 8 12 14 30 36 56 72 58 58 67 77 121 137 148 175 192 177 174 174 155 139 180 205 214 213 188 201 219 196 198 189 180 209 268 264 279 296 293 296 330 345 325 326 344 323 303 292 281 279 277 275 272 270 271 272 275 280 289 279 272 265 261 259 252 249 247 245 240 239 235 234 235 234 238 239 246 248 264 268 280 266 240 235 218 213 208 207 206 206 217 220 221 219 216 214 208 208 204 204 204 204 203 202 201 203 203 203 203 200 198 197 197 197 197 197 201 198 198 198 200 200 200 200 200 200 204 198 195 194 194 193 193 193 192 191 189 189 186 196 198 190 198 184 179 183 198 200 203 204 204 203 207 209 211 216 208 209 217 219 225 227 231 234 246 266 282 276 264 256 246 246 243 244 242 243 246 244 247 247 248 248 246 246 253 250 245 246 246 247 248 249 253 256 261 260 257 257 266 274 287 303 309 309 289 290 296 304 329 341 359 368 399 409 412 417 421 424 441 441 435 427 398 390 413 428 417 414 402 405 416 429 439 459 450 443 476 475 461 457 493 488 478 489 498 493 485 489 502 513 525 537 537 535 540 533 523 513 493 487 465 458 468 474 477 482 479 496 514 513 513 544 580 571 562 570 599 607 623 632 641 656 645 643 641 654 653 641 616 595 630 620 606 625 600 593 593 574 564 557 -9999
2 2 2 2 2 2 2 2 2 2 2 2 2 2 2 2 3 3 3 3 3 3 3 3 3 3 3 3 3 4 4 4 4 4 4 4 4 4 4 4 5 4 4 4 4 4 4 3 4 4 4 4 4 4 5 4 4 5 5 5 6 5 5 5 5 5 5 5 5 4 4 4 4 4 4 4 4 4 4 4 4 4 5 4 4 4 4 4 5 5 4 5 5 5 5 5 5 9 9 5 5 5 5 4 5 5 5 6 6 6 6 6 6 7 7 7 7 7 7 8 8 8 8 8 8 8 8 8 9 9 9 10 9 8 8 9 10 21 29 52 77 61 60 65 83 112 117 130 155 172 151 159 152 123 141 197 198 195 199 179 189 214 193 187 176 170 199 254 247 279 284 282 296 326 348 330 319 329 324 320 312 286 281 277 276 275 272 275 274 288 294 310 290 294 277 268 264 259 256 248 246 242 240 236 234 232 232 234 236 241 244 252 255 266 250 230 225 216 212 208 207 206 209 218 219 217 213 212 209 205 205 206 205 206 206 213 214 206 206 207 206 205 204 198 197 199 198 198 200 203 206 206 201 200 200 199 201 202 202 206 199 199 196 194 194 193 196 193 192 191 189 187 191 195 192 198 196 187 184 193 197 202 202 202 201 204 207 210 210 208 212 216 218 222 225 231 236 247 253 272 275 265 262 252 250 248 248 252 246 249 247 248 248 249 248 247 245 250 248 245 245 246 247 252 251 253 257 264 265 263 263 263 270 282 290 298 301 288 290 300 319 353 360 372 382 403 418 423 425 433 441 453 454 443 433 403 389 409 423 405 402 399 403 413 425 436 451 438 436 470 457 449 463 482 473 472 491 481 479 483 480 507 522 541 556 558 551 544 540 544 540 521 513 486 478 498 505 492 499 489 488 506 517 513 529 576 594 580 580 593 603 631 639 650 651 653 652 654 658 669 656 636 616 654 652 643 639 637 616 603 597 588 600 -9999
3 2 2 2 3 2 2 2 2 2 2 2 3 3 3 3 3 3 3 3 3 3 3 3 3 3 4 3 3 3 3 4 4 4 4 4 4 4 4 4 4 4 4 4 4 3 3 3 3 4 4 4 4 4 4 4 5 5 5 4 4 5 5 5 5 5 5 5 4 4 4 4 4 4 4 4 4 4 4 4 4 5 3 4 4 4 4 4 4 4 4 5 5 5 5 5 5 8 8 4 4 4 4 4 4 5 5 5 5 5 6 6 6 6 6 6 6 6 7 7 7 7 7 7 7 7 7 7 7 7 8 8 7 7 7 9 11 14 17 46 66 84 70 65 66 82 91 112 113 135 117 119 125 125 152 174 176 175 178 152 187 181 187 180 152 156 196 215 241 246 267 260 297 340 328 320 313 313 312 320 321 297 290 295 301 285 280 291 299 306 319 329 319 329 314 285 290 290 280 258 253 246 245 240 239 237 231 231 231 234 236 240 243 237 232 223 220 212 210 207 207 214 220 217 215 214 213 209 207 206 205 212 211 209 211 232 228 209 209 209 210 211 210 207 205 206 206 205 208 214 214 207 204 203 203 202 204 205 207 210 210 215 218 200 201 196 197 195 194 191 191 190 192 195 197 199 199 195 191 184 188 190 190 195 197 200 203 203 202 206 208 211 214 225 235 253 259 253 251 253 267 273 263 256 253 257 262 266 260 252 249 248 249 252 249 249 246 242 243 245 244 245 252 264 257 260 260 267 271 269 267 269 273 285 303 294 287 289 293 323 347 356 363 384 403 434 436 444 444 449 455 466 459 436 418 397 389 390 399 393 389 393 396 406 417 416 431 409 427 438 428 436 445 451 450 461 468 492 486 470 464 480 494 499 511 553 562 554 555 581 582 564 549 542 525 544 551 537 549 529 548 540 530 529 540 545 553 585 602 615 620 631 629 639 641 650 644 665 664 659 666 673 674 671 672 657 649 652 651 646 643 645 647 -9999
3 2 2 2 2 2 2 2 3 3 2 2 3 3 3 3 3 3 3 3 3 3 3 3 3 3 3 3 3 3 3 4 4 4 4 4 4 4 4 4 4 4 4 4 3 3 3 3 3 3 3 3 4 4 4 4 4 4 4 4 4 5 5 4 5 5 5 4 4 4 4 4 4 4 4 4 4 4 4 4 4 5 3 4 4 4 4 5 5 4 4 5 5 5 5 5 6 8 8 4 4 4 4 4 4 5 5 5 5 5 5 6 6 6 6 6 6 6 7 7 7 7 7 7 7 7 7 7 7 7 7 7 7 7 7 9 11 16 18 31 45 71 83 75 70 72 76 94 90 120 102 110 107 121 145 165 158 167 159 151 184 160 161 187 155 173 201 210 233 242 251 264 296 343 328 314 313 310 310 307 304 295 297 312 313 310 292 301 318 313 323 337 334 340 328 301 312 296 294 268 260 249 248 252 245 238 235 229 229 230 230 234 236 232 226 220 216 211 209 208 207 221 223 217 218 215 213 209 209 207 207 212 212 214 219 235 222 212 210 211 214 226 231 220 211 209 209 210 213 213 214 206 205 204 204 204 206 206 207 211 212 216 214 206 203 197 197 197 196 192 194 194 196 194 198 206 205 198 196 192 191 192 192 193 195 199 200 202 203 206 207 213 217 235 238 261 268 251 248 248 256 280 270 253 247 254 259 268 266 257 249 249 251 251 248 245 243 242 244 244 244 252 253 264 259 266 266 264 269 268 268 273 276 283 296 290 286 290 294 325 340 356 366 406 420 435 442 441 430 436 449 455 442 433 420 394 389 388 406 396 387 390 392 403 411 417 421 408 425 423 429 427 440 447 466 488 494 487 473 458 462 469 473 481 490 531 562 571 569 602 602 561 564 562 554 565 567 565 571 545 574 571 558 551 543 557 554 578 593 638 629 632 629 637 634 638 640 653 651 660 663 660 665 682 688 669 660 658 658 649 644 636 636 -9999
2 2 2 2 2 2 2 2 2 3 3 3 2 2 2 3 3 3 3 3 3 3 3 3 3 3 3 3 3 3 3 3 4 4 3 4 4 4 4 4 4 4 4 3 3 3 3 3 3 3 3 3 3 4 4 4 4 4 4 4 4 5 5 4 4 5 5 4 4 4 4 4 4 4 4 4 4 4 4 4 4 4 5 4 4 4 4 5 5 4 4 4 5 5 5 5 8 8 6 4 4 4 4 4 4 4 5 5 5 5 5 5 5 5 6 6 6 6 6 6 6 7 7 7 7 7 7 7 7 7 7 6 6 6 7 14 22 35 38 36 37 62 90 128 116 77 73 76 83 86 89 94 106 123 116 120 125 136 120 153 161 129 139 154 130 153 176 198 225 215 221 251 269 324 330 319 317 323 319 306 304 312 316 351 345 326 307 308 332 342 341 333 327 314 311 304 308 304 303 281 272 254 254 275 268 240 243 227 223 227 226 227 227 226 225 223 215 211 210 208 209 224 225 221 220 216 215 212 211 212 213 221 231 225 230 224 220 216 216 215 215 232 236 241 229 222 228 216 216 212 212 209 210 207 210 211 210 211 211 213 215 215 210 204 202 200 200 200 202 202 202 202 199 197 199 211 219 210 200 194 194 205 199 197 197 199 202 202 203 208 207 209 217 239 246 283 287 258 245 243 261 264 254 246 240 243 247 252 253 262 256 246 245 243 242 241 238 244 241 245 247 248 248 254 255 255 258 261 265 267 268 270 273 279 280 284 286 292 299 319 325 358 370 401 423 422 429 418 404 420 444 453 437 406 403 392 387 383 395 403 384 382 386 394 398 413 401 405 412 408 415 432 442 458 467 474 471 454 448 480 479 482 486 497 501 532 553 578 614 640 625 594 597 624 612 614 614 619 617 580 607 632 626 604 595 577 589 594 588 621 634 636 635 628 631 631 631 637 644 664 655 649 637 656 669 667 678 675 674 665 676 644 634 -9999
2 2 2 2 2 2 2 2 2 2 2 3 2 2 2 2 3 3 3 3 3 3 3 3 3 3 3 3 3 3 3 3 3 3 3 4 4 4 4 4 4 4 3 3 3 3 3 3 3 3 3 3 3 4 4 4 4 4 4 4 4 4 5 4 4 4 4 4 4 4 4 4 4 4 4 4 4 4 4 4 4 3 6 4 4 4 4 5 4 4 4 4 5 5 5 5 8 8 5 4 4 4 4 4 4 4 5 5 5 5 5 5 5 5 5 6 6 6 6 6 6 6 7 7 7 7 7 7 7 7 6 6 6 7 9 29 39 51 55 52 51 67 78 124 136 97 80 77 79 84 87 98 110 110 108 123 143 123 116 158 142 125 137 134 126 174 202 184 197 217 229 264 284 300 307 313 318 334 323 307 306 320 323 357 345 315 306 315 327 339 333 321 317 311 307 302 302 296 294 276 268 257 259 270 274 252 255 230 222 226 225 225 225 225 224 221 217 211 210 210 213 221 224 223 221 217 216 212 212 213 214 221 233 228 227 223 221 223 225 218 217 228 233 241 235 235 242 218 218 214 213 215 213 209 211 213 213 213 212 213 216 215 211 208 204 203 203 201 202 202 203 208 206 200 200 209 211 216 199 196 198 206 210 197 198 200 204 203 203 207 207 208 216 238 246 283 295 272 254 240 249 251 246 239 235 240 242 247 250 256 250 243 242 239 235 238 240 241 241 248 249 249 248 251 253 261 262 263 265 268 268 272 275 278 282 284 287 292 296 316 327 358 363 404 414 415 423 409 393 409 429 457 447 414 401 388 387 377 391 397 381 381 384 391 395 403 393 399 403 419 426 436 441 440 450 457 453 446 462 489 482 477 488 500 509 529 549 596 622 657 644 630 633 645 633 623 626 638 643 609 616 657 658 636 628 602 618 622 616 604 624 630 628 626 632 627 629 639 645 649 651 631 631 640 649 642 657 668 681 678 689 654 647 -9999
2 2 2 2 2 2 2 2 2 2 2 2 2 2 2 2 2 3 3 3 3 3 3 3 3 3 3 3 3 3 3 3 3 3 3 4 4 4 4 4 4 3 3 3 3 3 3 3 4 3 3 3 3 4 4 4 4 4 4 4 4 4 5 4 4 4 4 4 4 4 4 4 4 4 4 3 3 3 3 4 4 5 4 4 4 4 4 5 4 4 4 4 4 5 5 6 7 8 4 4 4 4 4 4 4 5 5 4 4 5 5 5 5 5 5 6 6 6 6 6 6 6 6 6 7 7 7 7 7 6 6 6 6 11 16 39 51 70 74 75 78 98 118 146 161 139 126 96 90 83 85 89 91 110 118 125 122 109 125 140 130 124 148 121 127 170 167 213 218 237 231 242 260 267 281 283 303 317 338 315 311 316 322 338 340 315 309 318 320 336 334 327 327 308 309 303 294 292 292 292 281 263 264 271 271 269 274 240 227 224 224 222 222 222 221 214 212 211 211 217 216 223 229 227 224 223 222 220 219 231 231 226 228 228 227 225 228 262 252 229 227 236 247 262 270 240 228 230 221 229 220 218 216 212 213 215 215 214 215 217 223 217 219 222 208 209 208 208 207 210 218 214 213 202 204 206 205 201 201 199 200 211 214 212 206 203 203 204 203 205 208 208 214 234 240 257 282 285 269 236 236 236 232 232 233 234 236 240 245 248 245 239 237 236 236 238 249 255 254 255 260 263 256 261 266 280 285 280 271 273 270 272 274 279 280 284 290 299 298 312 325 361 367 386 392 418 426 407 390 391 397 443 448 438 430 404 387 375 373 376 372 380 383 387 387 390 392 397 400 404 406 408 411 422 430 445 463 483 483 469 467 460 467 509 528 545 557 589 595 619 633 664 687 666 660 657 643 664 674 672 674 697 693 668 657 644 651 644 645 630 631 654 656 628 620 629 631 633 627 636 629 634 634 609 609 621 631 638 640 653 642 649 629 -9999
2 2 2 2 2 2 2 2 2 2 2 2 2 2 2 2 2 3 3 3 3 3 3 4 3 3 3 3 3 3 3 3 3 3 3 4 4 4 4 4 4 4 3 3 3 3 3 3 4 3 3 3 3 4 4 4 4 4 4 4 4 4 4 5 4 4 4 4 4 4 4 3 3 3 3 3 3 3 3 4 4 5 4 4 4 4 4 4 4 4 4 4 4 5 5 7 7 6 4 4 4 4 4 4 4 4 5 4 4 5 5 5 5 5 5 6 6 6 6 6 6 6 6 6 7 7 7 6 6 6 6 6 8 13 17 31 41 64 70 79 87 113 132 173 186 163 153 129 119 98 89 89 90 94 97 104 104 115 135 122 117 121 126 120 128 155 150 179 195 207 210 223 231 246 271 263 282 313 326 323 312 314 318 329 338 320 315 314 319 336 337 318 318 307 303 301 293 292 290 280 273 267 268 272 272 272 274 250 230 222 222 221 221 221 217 213 211 212 212 220 218 225 233 235 236 225 224 230 227 245 245 230 230 229 229 228 234 265 263 240 233 246 249 256 265 249 240 229 223 220 218 218 218 215 216 218 218 218 216 220 226 220 219 212 207 212 214 217 214 218 223 219 215 204 209 209 208 204 203 201 201 214 218 221 210 210 204 201 203 204 207 208 213 225 233 249 265 269 256 236 235 231 230 230 231 233 234 241 242 243 240 238 236 235 236 239 251 256 258 255 257 261 259 260 265 279 286 277 272 270 270 273 277 279 280 285 293 301 300 311 321 351 365 376 389 427 433 406 387 380 402 435 427 424 425 408 390 374 372 370 373 379 381 384 384 388 389 393 396 399 407 423 421 444 453 478 489 470 465 458 455 463 474 491 509 543 546 557 571 589 591 633 648 669 671 650 645 667 687 697 704 714 705 694 680 658 665 644 641 631 630 641 648 628 619 640 639 626 622 638 623 624 632 626 618 598 613 625 634 640 636 624 594 -9999
2 2 2 2 2 2 2 2 2 2 2 2 2 2 2 2 2 2 2 3 3 3 3 3 3 3 3 3 3 3 3 3 3 3 4 4 4 4 4 4 4 3 3 3 3 3 3 4 4 4 3 3 3 3 4 4 4 4 3 4 4 4 4 5 4 4 4 4 4 4 4 3 3 3 3 3 3 3 3 4 4 4 4 4 4 4 4 4 4 4 4 4 4 4 5 7 7 5 4 4 4 4 4 4 4 4 4 4 4 5 5 5 5 5 5 6 6 6 6 6 6 6 6 6 6 6 6 6 6 6 7 7 9 13 16 24 28 38 44 60 76 113 130 174 192 191 188 178 162 176 165 140 131 107 114 110 116 106 107 109 117 123 128 140 131 130 132 141 146 156 157 167 174 194 206 217 235 281 306 297 315 323 325 319 323 339 338 328 324 327 325 315 310 308 305 296 292 287 285 279 277 273 275 275 275 274 273 253 246 224 220 219 219 216 215 213 213 214 221 226 227 234 239 254 248 237 251 242 253 253 245 237 238 245 240 236 239 251 260 252 243 242 250 244 240 239 236 237 232 224 224 223 221 219 219 225 228 229 228 227 226 220 215 217 214 218 219 221 221 222 219 217 212 208 213 216 211 207 212 207 206 216 223 222 216 218 215 206 203 202 205 209 210 221 227 233 235 239 238 228 226 228 228 228 229 231 232 233 234 234 233 232 233 235 239 259 255 266 262 262 263 257 255 263 272 286 283 266 266 271 283 279 279 284 287 287 289 294 306 320 337 352 357 395 403 419 411 373 358 399 418 428 415 385 382 383 384 369 362 371 372 377 378 379 382 385 387 389 393 404 411 429 434 457 460 463 469 467 449 450 470 461 461 464 474 520 544 523 525 547 546 573 570 595 619 619 611 617 625 634 661 702 694 661 696 701 702 676 668 631 627 624 623 616 613 619 618 622 631 636 631 617 596 599 598 603 574 601 629 609 584 552 541 -9999
2 2 2 2 2 2 3 2 2 2 2 2 2 2 2 2 2 2 2 2 3 3 3 3 3 3 3 3 3 3 3 3 3 3 4 4 4 4 4 4 4 3 3 3 3 3 3 4 4 4 3 2 3 3 4 4 4 4 3 4 4 4 4 4 4 4 4 4 4 4 4 3 3 3 3 3 3 3 3 3 4 4 4 4 4 4 4 4 4 4 4 4 4 4 5 7 7 4 4 4 4 4 4 4 4 4 4 4 4 5 5 5 5 5 5 6 6 6 6 6 6 6 6 6 7 10 7 7 7 7 7 8 9 13 16 23 28 38 44 60 73 96 115 154 169 175 176 186 190 209 189 179 171 125 137 137 144 113 115 133 143 147 164 174 140 152 138 137 141 148 152 160 164 173 177 191 209 249 272 281 297 324 329 317 325 338 333 341 336 322 321 322 322 327 317 313 310 295 292 282 280 276 277 277 277 276 269 247 241 230 225 217 217 215 214 214 213 219 225 244 247 249 264 259 247 243 255 250 257 269 262 240 239 245 245 242 243 253 262 269 255 241 243 248 258 260 254 251 238 228 228 227 225 221 221 229 235 239 238 242 241 224 222 220 217 221 222 223 223 221 216 212 210 213 214 218 216 208 212 210 208 217 219 224 221 217 217 210 206 203 203 209 211 218 221 224 226 230 229 225 226 227 227 228 227 229 229 230 231 231 230 232 233 250 256 258 254 261 258 261 264 254 255 263 266 268 265 268 271 272 279 280 280 286 289 293 289 294 302 315 337 358 360 386 399 402 389 353 375 413 436 441 425 390 381 371 374 365 361 369 371 375 375 379 381 385 386 391 395 402 408 420 424 439 452 452 453 456 442 456 472 458 454 465 480 522 542 522 517 525 532 560 540 574 592 582 573 577 588 603 633 671 661 635 664 700 712 702 687 647 632 622 620 615 613 611 612 632 649 654 649 637 622 578 571 586 572 589 598 603 601 561 552 -9999
2 2 2 2 2 3 3 3 3 2 2 2 2 2 2 2 2 2 2 2 2 2 2 3 3 3 3 3 3 3 3 3 3 4 4 4 3 4 3 3 3 3 3 3 3 3 3 4 3 3 3 2 3 3 3 3 4 4 3 4 4 4 4 4 4 4 4 4 4 4 3 3 3 3 3 3 3 3 3 3 3 4 4 4 4 3 4 4 4 4 4 5 5 6 7 6 7 4 4 4 4 4 4 4 4 5 4 4 4 5 5 5 5 5 6 6 6 22 39 39 23 10 14 22 34 38 31 22 21 13 13 15 15 18 24 27 29 52 60 70 89 130 143 149 154 158 163 186 191 194 194 200 204 182 180 199 184 144 140 169 203 192 207 202 172 157 184 169 156 152 168 194 218 209 217 204 221 214 217 260 292 319 330 315 313 319 324 339 337 336 337 337 354 335 342 365 369 336 321 295 295 296 297 313 318 306 301 292 281 261 244 224 222 241 233 216 216 222 229 254 273 288 299 270 262 265 258 264 264 254 252 251 251 251 269 257 277 278 271 253 248 246 248 255 264 280 275 252 234 237 236 233 232 231 232 236 239 256 249 246 243 230 227 225 223 226 227 227 228 225 221 222 220 222 221 219 216 212 212 211 210 215 217 227 227 222 219 212 208 208 206 210 212 214 218 221 221 226 225 226 225 224 224 225 226 226 226 226 227 229 230 245 248 254 250 250 252 256 257 253 252 255 256 255 256 267 275 287 287 281 279 278 281 293 302 304 304 295 299 308 311 342 348 340 347 343 341 385 409 441 463 464 451 419 398 373 365 354 360 363 366 372 374 379 380 383 382 389 392 399 405 420 428 437 435 447 436 438 427 450 443 440 451 469 488 553 557 526 506 501 508 521 497 533 559 544 522 528 537 568 593 622 611 589 621 634 664 680 685 660 653 633 637 624 622 615 612 606 600 618 615 622 633 616 605 576 574 557 558 560 575 584 559 -9999
2 1 2 2 2 2 3 3 3 2 2 2 2 2 2 2 2 2 2 2 2 2 2 3 3 3 3 3 3 3 3 3 3 3 4 4 3 3 3 3 3 3 3 3 3 3 3 3 3 3 2 2 3 3 3 3 4 4 4 3 4 4 4 4 4 4 4 4 4 4 3 3 3 3 3 3 3 3 3 3 3 4 4 4 4 3 4 4 4 4 4 5 5 5 6 6 7 4 4 4 4 4 4 4 4 4 4 4 4 5 5 5 5 5 5 9 18 33 53 49 42 29 34 43 57 60 56 41 37 30 28 31 28 32 43 42 42 58 76 86 89 140 155 153 148 155 162 174 179 181 181 199 210 200 199 217 191 170 179 207 231 234 231 219 187 164 189 201 168 152 156 189 212 233 244 217 240 239 243 241 263 304 321 321 310 315 317 336 345 344 352 346 358 322 330 357 371 342 326 310 300 296 305 311 308 316 327 313 296 256 248 247 243 264 246 218 219 226 233 277 290 312 304 269 272 269 260 267 267 254 253 259 261 263 278 265 282 277 268 253 252 250 252 258 263 266 263 249 235 238 241 239 238 236 241 241 245 254 249 239 234 231 226 227 226 231 230 232 242 237 229 226 224 223 222 219 217 215 214 212 212 215 218 227 228 222 217 210 210 210 209 208 211 213 217 219 222 225 225 225 225 223 224 223 223 225 225 227 228 230 235 247 246 245 245 249 252 256 258 250 253 252 252 254 257 270 279 285 285 281 280 277 282 296 302 314 308 298 299 307 309 322 325 331 334 344 346 370 387 432 466 482 462 413 388 366 362 353 356 360 366 374 374 378 379 381 379 387 389 398 404 412 419 433 429 438 431 428 422 433 428 448 456 466 483 520 524 526 513 477 495 499 477 517 525 530 512 510 516 549 574 612 590 574 590 611 635 647 673 674 672 648 649 632 640 626 614 613 596 609 604 623 627 640 627 585 597 564 551 549 562 571 568 -9999
2 1 2 2 2 2 2 3 3 2 2 2 2 2 2 2 2 2 2 2 2 2 2 2 2 3 3 3 3 3 3 3 3 3 3 3 3 3 3 3 3 3 4 4 4 3 3 3 3 2 2 2 2 2 3 3 4 4 4 3 4 3 4 4 3 4 4 4 4 3 3 3 3 3 3 3 3 3 3 3 3 5 4 4 3 3 3 4 4 4 4 5 5 5 6 6 7 4 4 4 4 4 4 4 4 4 4 4 5 5 5 5 5 10 16 47 66 82 93 85 77 74 75 94 98 104 102 89 78 72 69 69 61 75 88 90 82 85 99 135 133 129 140 143 141 147 155 162 161 170 182 220 245 221 223 243 244 242 250 283 300 309 300 292 267 204 199 226 216 199 174 169 184 219 248 271 274 288 289 292 291 295 300 305 300 303 306 312 319 322 329 336 330 314 307 324 323 331 323 298 291 284 289 297 287 295 317 283 280 280 279 275 262 251 247 220 217 236 256 277 284 278 282 288 286 288 277 285 284 261 260 279 282 294 304 295 291 274 268 269 263 264 262 265 270 265 262 256 255 250 253 250 250 250 254 253 253 254 251 245 240 232 231 232 233 240 241 238 250 233 226 230 229 226 223 217 216 216 217 217 217 217 219 224 225 220 217 215 213 212 211 210 212 214 216 217 217 219 221 223 222 222 223 222 222 225 226 228 232 236 239 238 237 238 239 244 250 248 247 248 248 251 256 256 262 266 273 284 276 272 271 277 280 291 303 325 321 317 307 306 309 316 319 333 347 380 385 409 427 452 478 485 453 395 374 359 354 347 350 359 364 371 369 375 377 375 378 383 384 392 398 409 413 418 418 421 427 417 417 428 444 475 450 451 453 459 467 464 479 470 451 461 453 463 469 489 481 495 521 557 555 566 550 527 533 558 577 605 635 669 669 670 664 671 676 658 638 629 618 591 589 594 611 620 615 613 606 567 559 522 537 550 542 -9999
2 1 2 2 1 2 2 2 2 2 2 2 2 2 2 2 2 2 2 2 2 2 2 2 2 3 3 2 2 3 3 3 3 3 3 3 3 3 3 3 3 3 4 4 4 3 4 3 3 2 2 2 2 3 3 3 4 4 4 3 4 3 3 3 3 4 4 4 4 3 3 3 3 3 3 3 3 3 3 5 4 4 4 3 3 3 3 4 4 4 4 4 5 5 7 6 6 4 4 4 4 4 4 4 5 4 4 4 5 5 5 5 7 24 35 65 88 104 112 101 95 95 96 106 104 106 106 103 99 95 95 90 81 99 114 116 104 109 120 155 158 146 140 141 139 148 156 155 158 169 178 203 217 232 235 254 265 272 276 288 285 294 286 298 289 243 226 244 235 213 179 166 178 216 231 255 271 267 277 287 290 293 293 298 295 297 301 303 305 307 312 316 313 311 302 322 316 313 318 311 297 280 282 286 283 281 300 270 264 260 257 259 245 237 235 226 222 230 246 261 278 269 265 270 272 283 288 290 293 267 267 278 279 286 288 288 283 275 273 274 271 273 271 271 276 285 280 271 266 261 260 257 256 259 262 259 260 253 252 246 242 237 234 235 236 246 247 244 246 233 235 233 231 229 225 221 217 219 219 218 217 218 220 224 224 224 224 219 215 214 213 211 211 214 215 217 217 218 219 221 220 221 222 221 222 225 226 232 235 235 236 235 235 238 239 243 249 244 244 247 248 260 263 257 261 265 272 281 275 269 270 277 284 295 311 328 325 324 323 312 310 313 316 332 343 381 394 422 443 473 488 467 433 382 371 357 352 345 350 356 361 366 367 378 379 372 377 382 385 391 395 407 408 417 417 413 416 414 413 437 451 463 441 442 443 447 447 451 465 486 466 438 438 449 451 467 465 490 512 533 528 548 538 511 516 552 576 585 612 657 674 680 680 677 692 679 658 643 620 612 612 568 574 594 586 621 596 532 527 505 502 536 546 -9999
3 2 2 2 2 2 2 2 2 2 1 2 2 2 2 2 2 2 2 2 2 2 2 2 2 2 2 2 2 2 2 3 3 3 3 3 3 3 3 3 3 4 4 4 4 4 3 3 3 2 2 2 2 2 3 3 4 3 3 3 4 3 3 3 3 4 4 4 4 3 3 3 3 3 3 3 3 3 3 3 4 4 4 4 3 3 3 4 4 4 4 4 4 5 6 7 4 4 4 4 4 4 4 4 4 5 5 5 5 12 17 36 46 57 68 85 98 109 106 85 84 88 107 92 79 95 83 69 69 84 95 117 121 128 136 152 153 157 163 151 147 148 141 132 134 146 144 150 155 167 170 188 200 216 219 244 255 265 267 291 282 275 268 281 284 289 292 284 278 232 237 203 178 203 216 235 240 236 234 257 279 287 290 289 290 289 289 291 292 296 297 297 300 297 289 306 307 303 303 292 291 280 278 268 269 267 275 266 260 247 242 240 238 233 227 224 223 232 238 246 248 252 254 256 257 263 270 281 272 265 264 266 268 274 275 280 280 286 294 298 299 297 299 294 285 293 305 304 292 279 276 285 279 276 279 275 275 267 262 253 253 246 245 247 247 254 257 249 246 245 245 239 237 236 234 227 226 232 232 228 229 228 225 226 229 227 224 219 219 217 215 214 214 214 215 217 216 219 219 219 220 220 221 220 220 224 226 232 233 231 233 236 238 243 246 250 248 255 253 252 255 259 261 262 259 266 274 274 271 268 275 294 305 321 337 343 339 336 344 330 315 321 325 348 355 385 405 442 456 464 473 453 441 418 394 353 348 343 347 349 353 357 362 368 369 373 377 382 386 387 391 398 402 408 409 405 408 410 416 433 441 443 432 442 448 430 429 430 440 438 426 424 418 430 436 440 446 453 459 479 472 506 502 481 481 523 547 529 552 598 599 630 655 644 645 667 655 654 636 619 609 543 521 536 547 595 579 530 504 487 471 488 502 -9999
3 2 2 2 2 2 2 2 2 2 2 2 2 2 2 2 2 2 2 2 2 2 2 2 2 2 2 2 2 2 2 3 3 3 3 3 3 3 3 3 3 4 4 4 3 3 3 3 3 2 2 2 2 3 2 4 3 3 3 4 3 3 3 3 3 4 4 4 3 3 3 3 3 3 3 3 3 3 3 3 4 4 4 3 3 3 3 4 4 4 4 4 4 6 6 6 4 4 4 4 4 4 4 4 4 5 5 5 5 8 25 52 58 57 65 67 79 87 88 65 62 82 99 82 69 86 75 68 88 107 106 110 115 129 137 146 149 152 153 144 137 139 140 128 128 136 139 146 153 162 168 185 196 209 224 235 245 251 259 273 268 271 263 270 269 276 290 317 294 276 263 227 212 188 198 213 218 222 236 243 258 287 288 286 285 286 285 285 285 288 291 291 290 288 284 293 297 292 292 283 282 281 278 265 263 258 261 254 249 242 240 235 233 227 226 224 225 231 234 242 244 247 249 250 252 256 259 268 266 262 262 264 265 270 272 278 282 306 313 320 319 315 316 309 292 298 299 323 306 290 287 303 290 287 289 283 291 278 273 268 261 256 255 262 261 257 261 253 253 250 247 244 243 241 239 237 239 237 237 235 235 232 229 226 231 229 230 226 222 218 216 216 216 214 215 217 217 219 219 220 220 221 221 222 222 221 225 230 229 233 234 236 237 241 244 246 248 253 257 256 259 259 258 261 261 266 276 273 268 271 285 306 316 338 348 350 343 331 346 333 320 336 341 344 354 390 410 446 456 444 453 454 453 419 392 351 346 344 346 348 351 354 356 359 359 366 368 375 378 389 394 404 404 403 404 402 405 409 418 424 428 426 419 450 452 425 423 422 424 423 418 416 408 423 432 429 434 441 448 457 455 471 472 470 468 512 516 504 529 572 574 602 625 615 617 641 628 622 609 585 585 549 521 521 534 572 582 537 503 470 463 476 492 -9999
1 3 2 2 2 1 1 2 2 2 2 2 1 2 2 2 2 2 2 2 2 2 2 2 3 2 2 2 2 2 3 3 3 3 3 3 3 3 3 3 3 3 3 4 3 3 3 4 4 3 3 3 3 2 2 3 3 3 3 3 4 3 3 3 4 4 5 4 4 3 3 3 3 3 3 3 3 3 3 3 3 3 4 3 3 3 3 3 3 4 4 4 4 6 6 5 4 4 4 4 4 4 4 4 4 4 5 5 5 5 6 27 32 20 27 40 50 48 63 35 43 86 81 62 52 74 61 70 81 122 137 127 132 137 135 136 130 144 139 139 138 124 118 119 127 144 151 174 187 202 206 198 196 215 231 235 236 253 259 254 262 258 255 258 267 282 292 338 323 291 275 260 244 233 243 243 238 229 255 273 285 287 284 283 282 282 280 279 279 278 280 282 281 278 278 281 282 277 277 279 268 282 272 256 253 249 248 245 244 236 234 231 229 226 226 226 226 229 230 235 237 240 242 244 245 247 250 253 255 256 259 262 264 270 272 278 283 295 301 329 340 347 338 327 307 310 321 345 334 312 310 325 311 308 310 303 319 298 295 288 286 285 284 295 285 264 271 270 268 262 269 261 259 252 253 251 248 248 248 246 247 249 248 249 244 243 244 225 223 227 219 219 219 216 215 218 220 219 219 220 221 222 223 223 223 224 224 226 228 229 230 231 233 239 242 245 243 250 252 250 251 256 259 260 257 257 264 266 263 271 290 309 321 338 344 339 327 324 335 325 327 344 355 372 377 386 399 439 449 434 414 421 438 417 400 354 342 341 342 342 343 357 361 361 371 392 382 388 389 392 402 412 409 401 400 401 397 402 406 409 416 418 416 442 429 417 413 413 412 411 412 403 399 411 419 417 417 419 420 434 447 450 456 452 459 491 478 473 506 546 538 568 583 582 572 591 582 596 604 593 576 557 528 520 551 523 545 552 529 472 456 477 490 -9999
1 3 3 3 3 1 1 1 1 2 2 2 1 2 2 2 2 2 2 2 2 2 2 2 2 2 2 2 3 2 3 3 3 3 3 3 3 3 3 3 3 3 3 3 3 3 4 4 4 4 3 4 4 2 3 4 4 2 3 3 3 3 3 3 4 4 4 4 3 3 3 3 3 3 3 3 3 3 3 3 3 4 3 3 3 3 3 4 4 4 4 4 4 6 6 4 4 4 4 4 4 4 4 4 4 4 5 5 5 5 5 10 11 6 8 27 31 36 52 28 51 81 68 50 47 60 44 62 79 120 127 124 131 138 127 136 127 137 134 128 129 109 111 128 137 157 165 187 200 224 232 222 215 232 236 230 235 258 260 250 259 258 251 273 280 270 284 333 321 286 280 280 269 259 274 268 268 250 251 278 286 285 283 282 281 280 279 278 278 278 278 277 276 275 276 279 277 270 268 265 263 267 261 255 250 247 245 242 239 235 233 228 227 227 226 227 227 229 230 234 235 237 240 242 243 246 247 250 251 255 257 262 263 272 274 279 284 301 311 317 326 349 353 334 322 311 325 355 347 326 328 338 329 322 325 317 320 314 310 302 298 300 295 283 278 275 274 277 275 269 280 268 263 258 260 255 253 255 255 254 255 267 255 263 263 255 249 226 230 230 224 221 220 216 216 219 218 224 225 223 222 223 224 225 225 224 225 225 226 228 230 232 233 234 236 247 243 244 246 250 252 256 258 257 254 253 256 262 260 271 289 304 318 323 330 330 317 321 323 317 318 330 338 369 389 412 414 430 438 434 421 395 420 423 407 356 340 341 342 343 347 369 371 366 372 409 396 396 392 394 406 413 408 401 398 398 395 400 400 403 407 409 425 439 427 414 411 408 408 405 400 396 397 402 406 420 413 410 412 434 439 437 442 451 451 475 468 468 483 524 524 570 583 563 558 569 564 581 596 600 586 562 530 522 539 505 533 541 542 483 458 472 483 -9999
1 1 4 4 3 1 1 3 3 2 2 2 2 2 2 2 2 2 2 2 2 2 2 2 2 2 2 2 2 3 3 2 3 3 3 2 3 3 3 3 3 3 3 3 3 3 3 3 4 3 3 3 3 4 4 4 3 3 3 3 3 3 3 3 3 4 3 4 3 3 3 3 3 3 3 3 3 3 3 3 3 3 3 2 4 3 3 3 4 3 4 4 4 6 6 4 4 4 4 4 4 4 4 4 4 4 4 4 4 4 5 5 5 5 5 6 8 10 14 30 33 54 62 35 28 32 41 85 105 116 109 123 128 128 115 122 111 131 134 109 98 103 112 128 139 146 162 187 196 204 215 233 233 222 221 238 245 245 249 247 262 256 245 252 247 283 290 287 309 311 312 314 315 311 306 295 294 293 288 284 285 285 284 283 283 280 278 276 275 274 274 273 272 272 272 272 271 269 270 258 254 253 251 246 243 238 237 235 234 234 231 228 228 228 228 228 229 231 233 235 236 237 239 241 242 243 245 248 251 256 258 265 268 273 277 298 308 311 305 330 332 368 367 367 348 337 339 354 378 364 379 361 363 361 363 365 357 365 344 338 338 305 298 296 295 300 290 293 294 300 302 286 282 275 273 270 266 270 268 279 289 305 289 309 290 268 246 249 239 250 240 227 232 227 219 222 223 225 224 226 228 235 236 235 230 227 227 230 229 232 233 235 236 236 237 245 241 243 243 250 251 252 253 251 253 254 259 259 257 265 275 294 290 298 300 318 313 305 307 337 349 360 364 356 380 421 424 397 393 417 416 376 400 389 382 348 334 335 346 371 369 394 401 388 402 429 419 419 410 403 412 421 409 406 401 391 391 395 396 398 399 428 429 414 433 411 412 404 407 402 395 386 389 394 397 408 419 400 401 412 415 419 431 422 442 431 442 454 467 496 507 533 552 526 524 557 547 571 595 591 568 526 505 473 474 471 502 497 534 495 465 441 445 -9999
1 1 1 3 3 1 1 2 3 2 2 1 2 1 2 2 2 2 2 2 2 2 2 2 2 2 2 2 2 2 2 2 2 2 2 2 3 3 3 3 3 3 3 3 3 3 3 3 3 2 2 4 4 3 3 4 2 3 3 3 3 3 3 3 3 3 3 4 3 3 3 3 3 3 3 3 3 3 3 3 3 3 3 3 2 3 3 3 4 3 3 4 4 5 6 4 4 4 4 4 4 4 4 4 4 4 4 4 4 4 4 5 5 5 5 6 7 9 12 32 21 32 40 26 24 32 53 81 85 107 105 131 126 120 107 110 100 122 120 101 91 116 121 122 126 141 155 178 186 195 209 219 219 215 229 234 247 248 239 250 271 255 239 235 246 266 265 294 297 297 289 302 321 325 313 297 292 291 291 294 295 290 289 286 285 281 280 277 276 274 273 272 271 271 271 270 270 275 280 269 264 243 246 243 240 237 236 234 234 234 230 230 229 228 231 229 229 231 232 235 236 237 237 240 241 244 246 250 253 258 261 268 269 277 282 299 312 332 319 345 350 373 373 376 361 357 356 376 388 385 412 382 386 389 385 390 381 388 372 354 335 310 307 309 311 319 302 304 303 306 310 295 294 287 286 278 271 288 280 284 304 320 316 319 293 258 240 252 237 264 245 239 234 232 224 223 225 228 226 227 229 246 246 240 239 230 229 236 235 236 240 240 241 237 240 240 239 240 242 245 248 250 249 251 254 257 259 259 255 262 270 292 285 287 293 315 313 300 306 348 366 381 384 378 376 422 430 408 392 392 397 370 397 381 359 339 331 344 351 382 387 407 415 406 415 434 441 429 429 409 422 419 416 410 405 389 392 394 393 396 396 406 409 407 421 404 404 406 414 405 394 384 387 392 394 402 403 397 394 404 412 414 413 426 432 423 441 454 457 479 479 506 533 513 506 543 534 566 591 598 572 551 535 484 459 451 464 474 508 511 479 436 459 -9999
1 1 1 2 4 3 1 1 1 1 1 2 1 2 2 2 2 2 2 2 2 2 2 2 2 2 2 2 2 2 2 2 2 2 2 2 2 2 2 2 3 3 3 3 3 3 3 3 3 4 4 3 3 3 3 3 3 3 3 3 3 3 3 3 3 3 3 4 4 3 3 3 3 3 3 3 3 3 3 3 3 3 3 3 3 3 3 4 4 3 3 4 6 5 7 3 4 4 4 4 4 4 4 4 4 4 4 4 4 4 4 5 5 5 5 6 7 9 10 12 13 15 17 19 21 26 39 39 40 84 97 119 109 112 108 81 78 98 86 97 102 132 151 163 167 175 180 191 203 201 214 204 203 225 235 219 231 247 233 242 259 255 237 225 229 237 246 267 268 267 259 275 282 320 337 314 301 285 290 293 293 296 300 299 294 293 290 281 280 276 275 272 271 269 269 268 267 268 270 266 267 275 268 251 246 241 238 233 233 231 234 231 231 240 232 231 230 232 233 235 235 236 238 242 244 252 254 257 259 263 265 272 276 288 301 301 304 328 341 345 364 392 389 407 403 392 399 419 437 430 442 426 445 441 429 442 415 444 427 377 358 332 334 343 353 328 323 331 333 345 343 327 330 330 325 312 300 321 300 294 285 294 292 302 282 257 249 238 252 271 240 261 251 238 236 232 231 232 230 231 233 236 249 260 248 242 233 237 239 240 242 247 248 244 248 245 240 240 241 242 244 245 248 252 254 254 256 251 254 260 263 269 275 305 314 307 299 303 320 345 350 366 379 406 421 444 452 444 428 388 367 377 398 384 357 333 329 344 369 386 382 402 403 405 403 428 449 452 445 428 424 423 424 412 405 396 392 383 391 387 388 389 391 395 397 397 398 412 422 425 399 381 384 394 399 395 393 389 384 382 385 391 396 401 399 408 409 417 432 442 463 499 508 494 461 494 527 577 594 625 603 593 576 522 494 452 436 432 457 466 458 424 448 -9999
1 1 1 1 3 3 2 1 1 1 1 3 2 2 2 1 1 2 1 2 1 2 2 2 2 2 2 2 2 2 2 2 2 2 2 2 2 2 2 2 3 3 3 3 3 3 3 3 3 4 4 3 3 2 3 3 3 3 3 3 3 3 3 3 3 3 3 4 4 3 3 3 3 3 3 3 3 3 3 3 3 2 3 3 3 3 3 4 3 3 3 4 5 6 6 3 3 4 4 4 4 4 4 4 4 4 4 4 4 4 4 5 5 5 5 6 7 9 10 12 13 15 16 19 21 23 25 29 33 77 88 95 91 88 89 57 62 81 83 119 122 134 145 171 179 192 199 210 218 215 222 200 196 222 224 213 230 236 218 227 239 235 223 218 226 235 247 264 252 256 246 267 264 294 315 329 310 281 287 292 296 297 303 310 300 301 299 283 281 279 281 274 272 269 267 266 266 263 262 261 261 270 263 252 258 244 238 234 233 234 245 232 232 242 234 233 232 235 235 235 237 238 239 243 246 259 263 261 263 265 268 276 289 305 314 315 321 321 341 350 366 384 399 409 421 416 426 432 448 445 450 459 475 469 460 466 447 431 405 372 352 355 360 365 356 343 343 350 357 371 374 348 353 354 351 322 323 338 319 302 285 275 278 277 265 248 252 247 270 255 240 259 250 241 239 233 233 232 232 234 236 240 248 251 242 245 238 235 242 244 246 249 250 248 250 250 244 241 241 242 242 246 248 251 252 250 250 252 255 258 261 266 271 302 316 302 295 307 323 335 333 344 362 393 423 451 446 451 444 408 383 362 386 379 352 331 329 351 365 366 371 389 388 391 397 432 450 444 437 422 412 419 421 422 418 401 399 383 385 385 384 385 386 391 392 394 396 412 425 410 391 377 382 390 394 391 388 383 381 381 384 387 390 392 397 403 405 410 414 444 462 487 495 480 451 498 525 566 591 614 619 589 575 543 528 466 444 421 428 443 436 426 461 -9999
0 1 1 1 1 3 4 2 1 1 1 1 2 2 1 1 1 1 1 1 1 2 1 1 2 2 2 2 2 2 2 2 2 2 2 2 2 2 2 2 2 3 3 3 3 3 3 4 3 3 3 2 3 3 3 3 3 3 3 3 3 3 3 3 4 3 3 3 4 3 3 3 3 3 3 3 3 3 3 3 3 3 2 2 4 3 3 3 3 4 4 5 5 7 4 3 3 4 4 4 4 4 4 4 4 4 4 4 4 4 4 5 5 5 5 6 7 9 10 12 13 15 16 19 21 24 25 28 29 34 39 44 43 44 46 78 111 125 124 151 161 188 189 201 195 206 221 210 210 220 221 202 189 194 193 218 233 222 208 209 214 205 211 235 248 254 254 261 249 232 227 229 227 246 269 301 292 273 271 297 292 298 298 307 310 300 297 303 293 288 289 282 279 272 270 269 265 260 257 251 254 271 266 257 245 240 237 233 235 246 249 233 234 242 243 238 236 237 238 242 241 243 243 252 257 267 270 270 271 275 276 287 298 329 350 349 365 358 365 380 376 393 394 414 421 434 435 442 439 437 452 443 449 456 459 451 436 402 386 380 384 389 409 401 404 396 390 400 406 423 415 402 383 401 389 357 345 319 307 303 318 286 274 266 260 257 265 251 252 252 250 251 252 245 242 237 236 236 237 237 242 248 249 249 248 245 243 233 246 255 251 248 247 248 249 249 244 249 248 244 244 245 247 246 246 254 259 259 259 260 263 267 269 280 291 285 288 299 304 310 328 356 369 416 433 420 426 464 461 418 392 351 349 356 337 327 326 335 340 361 388 393 379 381 399 417 410 426 409 401 405 417 435 438 431 424 410 391 383 377 380 378 378 379 383 388 389 402 420 401 384 374 379 382 384 383 380 377 374 374 375 380 382 387 389 395 400 414 434 472 479 483 467 441 439 463 493 557 561 594 619 608 592 562 549 510 485 442 424 407 414 428 440 -9999
0 1 1 1 1 1 4 3 2 1 1 1 1 2 2 2 1 1 1 2 1 2 1 1 1 1 1 1 2 2 2 2 2 2 2 2 2 2 2 2 2 2 3 3 3 4 4 3 3 3 3 3 3 3 3 3 3 3 3 3 3 3 3 3 3 3 3 3 4 3 3 3 3 3 3 3 2 3 3 3 3 3 3 2 4 4 4 3 3 4 4 5 5 5 3 3 3 4 4 4 4 4 4 4 4 4 4 4 5 5 5 5 5 5 6 6 7 9 10 13 14 16 17 19 21 24 25 29 29 32 34 38 40 50 57 85 100 128 143 170 163 193 205 223 215 218 228 204 203 221 218 202 190 187 193 220 234 215 203 202 204 205 217 246 260 269 268 270 257 240 232 214 217 253 279 300 289 267 265 282 277 286 294 304 309 306 298 308 301 297 297 294 290 275 274 279 275 261 256 254 250 266 258 264 249 237 236 234 235 248 252 234 235 242 244 241 241 242 244 247 247 246 250 260 265 272 278 281 277 282 285 296 306 336 354 365 381 380 391 392 396 397 408 406 418 426 428 437 427 428 438 430 432 439 437 433 417 402 409 402 409 415 430 434 425 431 413 429 437 451 441 432 405 411 392 353 338 314 300 290 291 305 285 266 259 267 263 257 254 254 251 252 252 247 243 243 246 239 241 241 247 250 252 252 249 244 238 233 244 260 253 252 256 251 251 249 245 251 254 247 248 252 261 246 247 257 260 260 261 261 263 268 270 276 278 284 290 305 311 308 324 357 376 407 410 402 427 471 468 416 390 352 344 348 333 325 323 335 344 368 391 391 376 380 393 406 397 409 398 401 405 418 434 458 456 425 407 394 393 374 370 373 373 375 377 381 383 399 408 389 380 374 377 381 383 388 387 376 374 371 369 376 379 387 389 394 398 411 421 474 470 450 435 419 433 483 506 533 545 599 633 633 620 581 562 545 519 464 442 412 402 420 424 -9999
0 1 1 1 1 1 1 4 3 1 1 1 1 1 3 2 2 1 1 1 1 1 1 1 1 1 1 1 1 1 1 1 1 1 2 2 3 2 2 2 2 2 2 4 4 3 3 3 2 3 4 3 3 3 3 3 3 3 3 3 3 3 3 3 3 3 4 4 3 4 3 3 3 3 3 3 3 2 2 3 3 3 3 3 3 4 3 3 3 6 5 6 7 4 3 4 4 4 4 4 4 4 4 4 4 5 5 5 5 5 5 5 6 6 6 9 11 14 16 18 19 20 20 24 25 29 31 35 35 36 38 52 52 78 96 134 136 124 130 163 182 204 204 218 235 224 209 191 202 229 222 192 184 182 192 225 232 205 191 190 197 225 238 258 264 269 290 290 271 239 227 222 204 221 234 263 276 282 267 258 281 289 305 330 333 332 326 324 332 321 322 295 293 287 281 272 270 268 266 253 249 246 248 244 238 238 239 238 239 253 254 235 236 238 239 244 248 249 249 252 251 255 258 268 276 286 295 298 299 301 305 316 326 352 361 384 393 407 408 408 414 410 418 427 419 427 420 423 404 406 405 415 421 419 433 452 447 453 461 464 468 468 479 479 465 462 471 470 458 436 440 431 424 395 373 355 334 320 309 303 288 276 279 270 277 273 267 266 265 263 261 260 258 258 253 257 246 241 248 247 255 261 263 258 256 251 240 247 239 250 262 259 263 255 250 249 256 265 264 264 266 270 274 248 248 252 257 263 261 261 262 267 270 275 276 295 316 336 341 338 334 332 346 367 371 426 452 477 474 434 405 349 337 332 327 323 325 337 353 376 374 368 367 379 382 393 391 381 384 402 414 433 441 475 459 448 442 404 400 390 383 371 364 367 367 371 375 382 383 372 371 372 375 389 388 396 406 395 386 365 362 366 367 376 382 390 395 402 413 427 413 405 419 429 442 484 511 552 575 574 582 598 588 565 548 532 556 517 490 447 417 397 404 -9999
0 1 1 1 1 1 1 3 4 3 1 1 1 1 1 2 2 2 1 1 1 1 1 1 1 1 1 1 1 1 1 1 1 1 1 2 2 3 3 2 2 3 3 4 3 3 3 3 3 3 4 3 3 3 3 3 3 3 3 4 4 3 3 3 3 3 4 3 3 4 3 3 3 3 3 3 3 2 2 2 2 2 3 3 4 3 3 3 4 4 5 6 5 4 4 4 4 4 4 4 4 4 4 5 5 5 5 6 6 6 6 6 6 7 7 11 14 17 19 22 22 24 35 28 29 33 37 40 39 46 45 62 61 81 98 145 155 146 147 149 159 194 211 219 225 217 200 188 201 229 227 192 182 181 189 218 222 199 186 193 203 229 240 250 251 272 296 301 284 253 234 221 208 206 218 230 257 288 282 248 259 270 291 310 300 312 308 304 324 303 307 298 302 296 292 277 280 280 282 254 249 246 244 240 240 238 245 240 247 252 254 237 236 239 240 244 248 251 252 255 255 262 264 274 282 287 295 304 311 320 325 328 341 359 369 382 387 399 404 410 410 418 422 420 417 421 415 416 405 398 408 424 417 423 435 448 444 448 441 480 475 461 462 463 464 457 477 474 459 430 422 416 404 393 373 339 332 319 311 322 309 291 291 273 282 275 275 271 273 268 267 265 268 266 263 260 261 248 245 259 262 264 265 264 271 255 248 249 252 243 260 266 267 254 251 266 257 262 265 267 269 273 274 250 248 250 254 259 256 259 260 266 269 273 274 286 304 339 350 349 349 346 342 363 392 439 451 452 469 441 409 346 334 327 326 320 325 348 367 383 375 365 368 394 398 398 387 380 384 400 418 447 459 486 481 470 446 422 417 395 394 376 369 364 364 368 371 376 376 369 369 371 379 385 389 398 407 426 415 383 369 359 360 370 378 388 394 403 421 418 397 401 421 451 460 490 521 546 555 532 539 571 567 543 525 527 535 537 522 461 444 392 407 -9999
0 1 1 1 1 1 1 1 2 3 4 1 1 1 1 2 2 2 2 1 1 1 1 1 1 1 1 1 1 1 1 1 1 1 2 1 1 2 2 3 3 3 3 3 3 4 3 2 3 3 4 3 2 3 3 2 3 3 3 3 3 3 3 3 3 4 3 3 3 3 3 3 3 3 3 2 2 2 2 2 2 3 3 3 3 4 3 5 4 5 5 40 53 25 7 5 5 5 6 6 6 6 6 7 8 9 10 10 11 11 11 9 9 10 12 16 19 23 26 30 30 31 36 40 40 51 53 55 55 68 71 80 85 87 101 144 177 194 193 194 196 197 196 194 201 213 203 178 191 214 211 196 180 178 189 203 198 181 178 193 197 217 219 238 250 286 302 287 288 262 248 213 205 188 189 209 221 235 253 254 237 237 250 276 261 282 265 287 301 295 288 277 285 315 314 302 292 292 278 282 269 263 259 258 255 249 242 247 252 257 249 248 245 244 242 247 250 259 259 263 264 272 273 290 294 316 319 322 324 341 340 353 357 362 359 388 398 395 395 400 401 400 404 410 407 404 409 400 390 411 399 422 414 415 420 429 430 415 433 472 480 459 443 431 432 445 459 474 476 466 451 424 414 386 382 373 373 355 356 337 325 320 308 285 288 296 304 293 288 282 279 287 282 291 287 282 282 266 263 260 268 276 294 308 304 255 260 259 254 248 257 263 264 260 264 280 269 277 283 287 291 293 277 268 258 252 250 254 257 262 261 264 266 269 271 277 288 334 335 339 357 386 386 406 418 428 415 413 444 445 419 364 353 324 322 322 336 358 355 375 376 367 376 401 407 405 393 374 379 394 397 426 454 477 494 478 471 460 449 429 410 384 375 364 357 359 360 367 366 362 363 370 373 376 377 406 423 439 410 390 369 347 349 365 370 405 404 408 412 392 375 402 421 461 476 474 460 495 503 469 481 512 518 511 487 472 465 481 476 448 423 404 384 -9999
0 0 0 0 0 0 0 0 1 4 4 1 1 1 1 1 2 2 2 1 1 1 1 1 1 1 1 1 1 1 1 1 1 1 1 1 1 2 2 3 3 3 3 3 3 3 3 3 3 3 4 3 3 3 3 2 3 3 3 3 3 3 3 4 3 3 3 3 3 3 4 3 3 3 3 2 2 2 2 2 2 3 3 3 3 4 3 4 4 7 12 60 68 19 5 5 5 6 7 8 8 8 8 9 10 12 12 13 13 14 14 12 11 12 14 19 23 32 33 34 35 44 46 55 48 66 67 75 74 71 84 91 99 98 104 146 177 218 210 215 221 209 204 187 189 202 200 176 179 192 192 196 182 175 186 195 182 173 178 189 196 204 212 251 270 297 310 289 273 260 244 210 196 197 181 196 205 225 227 264 256 223 225 251 249 274 253 267 285 312 305 275 298 313 314 322 314 306 295 295 283 276 271 272 268 267 247 252 255 258 257 257 253 247 246 245 249 257 261 265 267 276 277 304 312 321 320 312 318 330 324 353 348 346 362 380 392 401 402 412 413 402 399 403 396 408 406 384 391 408 392 411 419 403 405 428 425 421 424 464 472 467 457 430 427 434 447 470 461 478 467 446 442 415 410 397 395 376 380 359 349 325 306 289 293 306 315 302 303 296 289 303 300 317 297 297 296 274 269 265 270 283 301 303 285 254 265 254 244 257 266 263 266 267 270 283 284 284 287 289 306 306 289 272 265 256 250 254 257 261 262 263 264 267 269 276 284 312 311 334 355 391 387 408 416 415 396 407 428 442 420 362 343 323 320 321 333 338 341 364 372 363 372 392 406 395 389 368 375 387 392 421 437 470 484 478 475 480 474 433 417 395 385 369 360 357 356 361 358 363 366 367 370 372 376 397 412 431 412 390 384 351 340 365 383 409 391 390 392 385 372 391 410 452 463 439 441 480 469 451 464 489 497 500 486 454 446 459 450 449 437 397 383 -9999
0 0 0 0 0 0 0 0 0 1 3 4 2 1 1 1 1 1 2 2 2 1 1 1 1 1 1 1 1 1 1 1 1 1 1 2 2 3 3 3 3 2 2 3 3 3 3 3 3 3 3 3 3 3 3 3 3 2 3 3 3 3 3 3 4 3 3 3 3 3 4 3 3 3 3 3 3 3 3 3 3 3 3 3 2 3 4 6 35 55 66 99 86 25 8 6 6 7 10 13 14 13 12 12 13 16 17 18 18 20 19 17 16 18 21 26 28 55 62 48 46 68 81 85 74 91 90 110 114 114 114 119 128 130 132 152 179 234 234 253 252 218 220 198 185 174 177 189 171 168 172 189 180 165 172 168 167 182 200 217 236 235 227 275 294 291 289 266 244 221 213 193 187 178 174 179 180 194 213 220 233 249 231 218 225 238 223 249 273 272 282 253 272 274 288 291 317 341 340 323 315 286 284 274 263 255 249 256 261 255 259 267 263 256 255 257 257 262 260 265 266 271 277 283 288 292 293 296 299 306 312 323 326 349 361 369 367 389 401 430 431 424 416 386 389 402 403 384 371 402 391 386 386 386 382 397 392 401 416 443 445 463 458 438 432 417 436 434 419 451 466 423 435 432 433 452 434 402 386 372 344 324 306 302 309 336 344 347 357 323 317 315 335 352 335 345 339 305 287 270 280 281 280 278 273 270 265 258 245 250 268 268 272 280 286 316 315 320 297 304 320 310 292 286 274 257 253 255 256 260 262 264 264 269 272 276 280 291 301 347 367 354 347 398 418 404 383 379 381 437 429 381 354 322 316 323 328 351 363 385 377 356 363 398 405 381 378 364 372 402 417 420 417 440 439 442 451 475 488 463 462 436 423 397 378 352 351 356 358 361 362 363 365 367 370 378 383 416 410 366 364 347 336 364 367 392 381 385 370 383 364 389 399 416 412 406 419 426 420 427 431 443 455 455 457 441 428 418 417 412 412 394 378 -9999
0 0 0 0 0 0 0 0 0 0 1 4 4 1 1 1 1 1 1 2 2 2 1 1 1 1 1 1 1 1 1 1 1 1 1 2 3 3 2 3 2 3 2 3 3 3 3 3 3 3 2 3 2 3 3 3 3 3 3 3 3 3 3 3 3 3 3 3 3 3 4 3 3 3 3 3 3 3 3 3 3 3 3 3 3 5 4 6 25 76 88 78 65 26 9 7 8 12 13 16 16 16 15 14 15 19 19 20 21 22 22 20 18 22 25 30 33 60 74 56 56 75 91 106 93 109 102 123 136 140 132 135 137 147 151 163 183 240 249 256 242 235 235 198 187 173 170 186 173 164 169 178 172 160 164 164 172 186 207 237 251 258 244 272 301 292 274 256 236 211 201 189 185 191 186 171 178 192 201 207 218 228 240 207 215 221 218 269 278 248 254 231 253 261 277 286 311 325 313 309 311 296 303 285 273 253 250 256 262 262 265 274 273 267 265 264 266 281 272 286 283 274 275 280 284 293 297 311 315 322 326 332 345 366 381 376 372 375 382 421 418 414 408 388 384 395 385 383 365 391 393 373 372 373 386 386 392 395 410 436 443 460 447 442 429 403 418 421 404 427 451 415 411 423 429 436 426 397 395 360 344 320 303 314 322 361 377 378 381 345 335 310 334 372 362 359 345 317 308 272 284 283 282 275 272 271 268 252 255 244 253 274 277 288 299 327 338 318 300 328 337 306 292 301 286 264 256 256 257 260 262 264 265 268 270 277 280 289 294 332 354 339 345 399 415 397 379 358 375 431 433 386 352 316 316 324 330 357 384 381 370 354 364 394 404 376 372 365 371 397 421 426 416 422 425 432 454 490 503 486 481 450 433 394 374 349 351 354 355 359 359 361 364 366 369 377 381 406 414 376 363 348 336 354 354 376 366 380 367 373 362 386 397 403 396 398 403 409 412 414 416 428 433 438 440 430 421 411 409 401 404 390 377 -9999
0 0 0 0 0 0 0 0 0 0 0 4 4 1 1 1 1 1 1 2 2 1 1 1 1 1 1 1 1 1 1 1 1 2 3 2 2 3 3 3 3 3 3 3 3 2 3 3 3 3 3 2 2 2 2 2 3 3 3 3 3 3 3 3 3 3 3 3 3 3 3 4 3 3 3 3 3 2 2 3 3 3 3 3 3 4 4 4 6 34 52 45 33 20 18 19 24 49 45 23 21 21 21 19 19 35 27 25 26 28 28 35 32 31 34 44 45 67 89 74 77 94 106 134 129 140 132 154 173 179 167 171 168 185 190 203 210 245 256 257 257 265 245 226 224 192 175 165 163 157 165 158 155 156 158 176 189 223 219 256 280 303 294 296 304 299 302 270 269 242 222 224 207 216 198 164 179 187 188 204 207 207 216 231 218 202 200 216 226 225 220 214 239 244 244 275 286 301 275 276 281 299 301 292 292 262 253 255 264 276 277 282 287 292 295 293 300 310 297 322 321 305 329 312 304 351 351 350 349 352 359 354 347 397 413 401 410 394 389 386 389 396 398 386 366 394 398 356 352 385 376 354 359 363 383 383 375 378 377 409 420 435 427 393 403 401 380 373 366 386 404 389 394 392 420 420 390 372 370 341 329 313 314 355 367 387 383 379 380 375 354 329 358 353 333 310 304 288 283 298 299 291 288 285 283 277 273 279 281 260 262 256 263 297 333 358 353 349 325 337 349 336 327 320 307 273 270 265 262 261 262 264 265 268 270 275 277 281 285 309 314 322 351 394 401 378 360 358 389 392 411 367 340 313 318 351 362 376 403 376 363 352 361 375 395 390 372 359 365 398 417 421 408 410 415 449 470 503 505 491 467 413 431 408 378 347 349 352 352 353 356 357 359 371 373 389 399 423 436 399 400 360 339 339 342 354 353 356 378 360 359 395 382 378 389 392 393 398 405 405 407 404 409 419 422 427 436 420 412 384 381 381 374 -9999
0 0 0 0 0 0 0 0 0 0 0 1 4 2 1 1 1 1 1 2 1 1 1 2 1 1 1 1 1 1 1 1 2 3 3 2 2 2 2 3 3 3 3 3 3 3 2 3 3 3 3 3 3 2 1 2 2 3 3 3 3 3 3 3 3 3 3 3 3 3 3 4 3 3 3 3 3 2 2 2 2 3 3 4 2 4 4 4 5 21 36 38 33 35 30 28 35 57 51 29 24 24 24 22 22 43 36 28 29 31 31 48 49 45 46 58 53 81 99 93 89 116 121 139 141 146 147 167 188 197 190 190 188 201 203 220 227 247 249 247 256 275 255 244 234 201 188 163 157 153 163 152 150 158 172 194 194 238 246 269 296 316 312 308 302 293 294 292 285 256 240 239 228 228 209 164 166 181 198 208 201 200 211 246 251 208 190 190 211 204 211 205 221 228 242 257 269 281 257 280 264 289 293 275 273 258 256 255 259 267 270 275 286 288 292 311 323 323 308 331 344 313 345 327 307 353 369 375 359 380 373 374 358 396 417 416 419 412 407 397 399 407 402 370 360 369 382 349 349 377 366 348 354 363 379 393 377 374 371 396 395 407 414 381 377 389 381 351 353 378 392 369 377 388 413 418 403 358 347 332 324 334 328 339 355 386 380 376 375 383 372 337 377 347 323 329 320 317 315 324 314 292 289 290 290 283 278 283 282 268 272 254 265 302 330 350 332 337 338 351 349 350 345 323 311 276 270 266 263 262 263 265 266 267 267 273 275 281 284 293 296 328 352 372 386 370 351 352 376 378 400 364 335 312 318 349 367 382 404 392 365 348 359 388 390 388 376 358 366 387 409 411 403 414 426 454 460 475 462 473 453 399 409 409 386 347 348 352 352 352 353 356 358 364 372 380 391 407 430 372 374 370 346 335 341 344 350 366 393 353 359 385 368 396 390 390 391 392 395 401 401 401 402 416 418 433 441 420 408 382 377 374 375 -9999
0 0 0 0 0 0 0 0 0 0 0 1 1 3 2 1 1 1 1 1 1 1 2 2 1 1 2 1 1 1 2 3 3 2 3 1 2 3 3 3 3 3 3 3 3 3 3 3 3 3 3 3 3 3 2 3 3 3 3 2 2 3 3 3 3 3 3 3 3 3 3 3 4 3 3 3 3 2 2 2 3 3 3 2 4 4 4 4 4 39 67 61 75 78 58 62 81 75 66 36 30 31 31 28 36 63 59 36 35 38 39 67 83 79 72 87 94 89 113 121 117 137 149 161 162 177 181 196 203 235 236 231 230 233 237 239 233 234 227 223 243 280 274 239 219 189 178 167 163 150 146 149 157 174 196 241 245 262 293 307 309 300 303 296 298 287 292 286 280 271 277 238 223 202 190 159 162 206 224 211 196 194 205 221 215 216 205 176 164 159 163 184 207 216 201 217 222 231 232 248 258 274 274 266 263 261 267 261 260 264 269 277 276 285 293 321 339 363 359 364 383 367 380 362 337 384 408 411 397 419 411 389 385 409 426 458 465 459 450 438 426 401 395 368 364 346 349 343 343 352 342 341 340 368 382 383 373 365 369 362 360 371 373 379 369 355 353 344 340 353 349 346 347 376 368 369 365 379 372 351 351 385 362 369 380 382 378 372 371 371 369 379 385 338 360 392 386 365 337 317 317 316 312 311 322 307 294 288 284 279 278 255 277 318 311 318 301 332 332 359 350 315 305 318 309 288 281 277 273 265 264 265 266 268 268 272 274 280 283 287 291 334 346 347 359 368 357 328 337 372 386 352 322 315 319 333 343 381 402 407 376 348 359 383 371 362 358 362 373 425 429 399 399 416 420 426 439 441 415 425 418 380 376 375 366 347 343 347 348 347 350 353 355 366 369 377 383 419 413 364 356 344 343 329 334 342 339 362 369 344 359 360 369 381 377 386 381 386 400 386 385 392 397 409 415 444 461 449 448 421 399 370 378 -9999
0 0 0 0 0 0 0 0 0 0 0 1 1 4 3 1 1 1 1 1 1 1 1 2 2 2 2 1 1 2 3 2 2 3 2 2 3 3 3 3 3 3 3 3 3 3 3 3 3 3 3 3 3 3 3 2 3 3 2 2 2 2 3 3 3 3 3 3 3 3 3 3 4 3 3 3 3 2 2 2 3 3 3 4 3 4 4 4 4 47 76 80 96 85 67 79 100 99 87 43 34 35 35 38 52 78 77 43 38 41 44 86 100 97 94 97 107 99 127 136 128 145 160 176 175 199 204 213 216 243 243 241 242 251 255 242 228 215 209 218 241 277 276 241 222 200 183 171 161 148 144 155 172 197 211 252 270 283 308 298 298 299 311 292 296 286 292 280 267 265 270 241 219 178 173 153 161 196 224 229 206 184 192 206 209 241 230 202 182 173 160 176 183 196 189 240 244 240 250 279 270 272 269 266 266 267 270 260 262 265 268 274 277 285 292 313 322 370 388 383 401 391 400 384 353 386 413 433 418 435 424 401 399 431 434 462 467 477 474 457 439 412 399 375 362 346 343 340 339 340 336 337 337 366 369 379 378 352 358 351 356 361 360 361 356 342 340 338 336 342 342 341 344 353 348 352 354 389 391 368 371 407 384 378 399 384 376 371 369 370 370 380 378 353 371 412 418 358 348 326 332 336 326 331 338 318 307 299 292 287 276 264 269 303 291 290 291 351 356 362 350 326 311 297 296 286 284 279 277 267 266 266 266 268 269 271 273 279 281 286 290 315 334 335 338 352 348 319 326 372 376 346 316 314 321 344 362 390 417 419 388 347 351 377 373 353 354 367 380 434 432 398 400 411 417 438 459 451 425 399 402 371 368 363 354 346 344 346 346 346 349 350 352 361 371 388 396 418 404 387 374 345 334 327 331 334 338 360 355 345 354 368 380 368 371 385 372 385 396 383 380 390 396 409 417 429 452 428 432 440 407 369 381 -9999
0 0 0 0 0 0 0 0 0 0 0 0 0 1 3 1 1 1 2 1 1 1 1 1 1 2 2 3 3 2 2 3 2 1 2 1 2 3 3 3 3 3 3 3 3 3 3 3 3 3 3 3 3 3 4 3 2 3 3 2 2 2 2 3 3 3 3 3 3 3 3 3 3 3 3 3 3 3 3 3 3 3 2 3 3 4 4 4 6 46 80 102 119 116 102 110 128 113 98 65 43 43 45 62 83 112 103 67 49 47 49 69 93 132 131 127 132 127 145 165 156 170 188 203 208 230 235 244 244 238 223 220 225 249 259 251 230 192 184 213 233 247 256 265 254 220 218 200 191 172 145 156 173 217 238 281 285 297 298 284 282 290 302 297 293 258 254 280 263 230 232 256 236 205 195 151 157 203 212 207 200 169 175 195 205 208 217 238 237 211 187 149 157 189 199 231 250 277 272 268 246 232 233 251 264 273 269 270 273 276 282 288 286 295 304 316 331 360 370 392 406 430 432 395 372 414 434 473 466 468 450 437 432 465 486 470 455 439 444 434 425 406 392 358 362 356 356 343 336 333 332 332 332 334 340 361 371 362 358 332 332 355 347 344 351 338 332 332 332 329 330 334 334 332 334 340 349 372 387 388 407 393 384 398 408 393 377 365 363 371 376 373 368 374 383 407 430 416 401 364 372 371 363 382 377 349 347 339 323 298 283 270 273 268 272 287 302 354 383 343 319 321 304 294 293 293 293 285 283 276 271 270 269 269 270 271 272 276 279 283 283 291 307 307 315 315 314 312 322 359 363 321 311 319 346 386 403 442 458 440 404 343 347 371 359 349 355 405 425 408 397 405 410 438 453 484 500 457 420 383 373 366 361 353 351 345 342 342 342 342 343 345 347 351 356 367 370 395 406 424 401 377 359 345 327 331 348 365 350 341 349 355 365 368 358 364 364 376 388 370 377 413 412 412 396 429 448 429 414 390 385 370 385 -9999
0 0 0 0 0 0 0 0 0 0 0 0 0 1 1 4 2 1 1 1 1 1 2 1 1 2 2 3 3 2 3 2 1 2 1 1 1 3 3 3 3 2 3 3 3 3 3 3 3 3 3 3 3 3 3 3 3 3 3 2 2 2 2 3 3 2 3 3 3 3 3 3 3 3 3 3 3 3 3 3 3 3 3 3 4 4 4 4 10 48 83 117 131 135 120 127 137 119 110 74 49 47 51 69 94 132 112 69 54 52 53 66 87 133 143 142 148 146 147 174 173 185 199 220 226 244 241 233 234 227 214 207 208 234 237 247 230 195 180 206 217 222 238 264 257 235 226 196 191 170 145 153 166 207 232 273 266 282 282 260 252 270 281 278 278 248 227 258 253 215 207 237 238 186 174 151 150 181 194 194 175 163 172 200 201 193 205 215 217 194 171 147 155 174 190 213 225 286 279 253 246 206 222 227 241 273 276 272 274 288 293 300 299 301 317 335 338 361 372 401 412 461 453 398 382 417 448 497 492 477 459 454 450 485 503 483 469 449 441 430 429 408 377 352 349 342 344 354 350 332 330 330 330 330 332 357 361 350 350 336 328 342 346 334 344 332 329 329 329 328 328 331 331 330 332 337 344 356 372 375 389 375 369 389 400 381 375 365 362 374 384 372 368 373 379 414 417 412 409 391 391 400 386 385 370 352 339 324 310 293 288 282 271 277 283 293 318 369 378 331 326 306 304 308 311 306 307 288 292 279 276 272 271 269 270 271 273 276 277 280 283 287 293 301 304 305 307 310 315 348 351 315 307 320 343 400 423 457 468 435 403 343 345 369 355 350 359 408 428 395 394 424 434 452 474 512 514 441 423 388 372 362 359 351 348 345 341 341 340 342 342 344 345 348 351 357 360 376 387 419 421 386 385 364 342 328 338 356 339 345 348 348 354 357 362 361 362 368 372 370 387 393 402 396 393 432 434 408 406 400 380 370 400 -9999
0 0 0 0 0 0 0 0 0 0 0 0 0 1 1 1 4 2 1 1 1 1 2 2 3 3 3 2 3 3 3 2 2 1 1 1 2 3 2 3 3 4 3 3 3 3 3 3 3 3 3 3 3 3 3 3 3 2 2 2 2 2 2 3 3 2 2 3 3 3 3 3 3 4 3 3 3 3 2 3 3 3 3 4 4 4 4 7 15 56 65 125 150 168 162 163 163 128 107 64 54 57 67 79 109 155 151 92 70 73 72 68 75 115 134 171 175 184 184 208 210 220 229 256 264 264 259 227 209 198 203 188 189 202 205 212 220 200 181 179 178 203 224 251 237 214 206 180 164 143 138 166 181 221 231 233 221 250 247 222 212 232 250 229 220 210 196 197 194 188 191 200 199 172 160 144 141 154 156 155 153 178 204 230 223 193 179 185 182 162 150 156 175 168 185 221 233 235 248 225 243 194 187 196 222 252 256 251 283 306 317 332 336 333 321 368 386 391 399 425 437 454 452 418 416 437 458 508 489 439 442 440 451 449 471 490 502 492 484 463 455 430 414 390 391 377 357 333 331 329 328 326 326 325 327 345 353 354 351 324 326 322 321 321 320 321 322 324 325 323 323 324 325 326 329 334 338 350 362 370 359 363 380 408 410 389 375 364 361 393 405 372 370 378 387 399 401 403 404 407 415 440 430 367 356 335 324 301 292 284 283 292 292 280 287 301 315 349 374 371 344 314 315 338 349 337 326 309 298 282 280 278 274 270 270 272 274 276 276 280 282 285 287 296 298 300 302 304 304 319 316 303 304 334 359 404 415 415 444 425 393 341 341 347 341 354 368 399 395 384 398 444 469 494 506 544 544 489 460 422 410 371 355 346 345 337 336 338 338 338 339 340 342 343 346 350 354 358 363 395 394 360 370 364 345 320 329 333 331 340 340 341 343 347 349 354 354 355 356 370 374 395 391 380 398 400 409 412 406 378 366 371 384 -9999
